ply
format ascii 1.0
comment Point Cloud Data Format in OpenHolo Library v1.0
element color 1
property int channel
element vertex 1038
property float x
property float y
property float z
property uchar red
property uchar green
property uchar blue
property double phase
end_header
1
0.175000 -0.291667 0.817937 85 85 85 0.772575
0.246875 -0.291667 0.801123 53 53 53 0.772575
0.318750 -0.291667 0.247505 11 11 11 0.772575
0.043750 -0.288889 0.452881 84 84 84 0.772575
0.115625 -0.288889 0.653932 84 84 84 0.772575
0.187500 -0.288889 0.852092 91 91 91 0.772575
0.259375 -0.288889 0.724700 47 47 47 0.772575
0.331250 -0.288889 0.090443 11 11 11 0.772575
0.056250 -0.286111 0.489929 82 82 82 0.772575
0.128125 -0.286111 0.661786 19 19 19 0.772575
0.200000 -0.286111 0.870080 92 92 92 0.772575
0.271875 -0.286111 0.643345 42 42 42 0.772575
0.068750 -0.283333 0.526981 74 74 74 0.772575
0.140625 -0.283333 0.641899 24 24 24 0.772575
0.212500 -0.283333 0.873101 89 89 89 0.772575
0.284375 -0.283333 0.556635 38 38 38 0.772575
0.009375 -0.280556 0.335864 44 44 44 0.772575
0.081250 -0.280556 0.564029 72 72 72 0.772575
0.153125 -0.280556 0.654599 22 22 22 0.772575
0.225000 -0.280556 0.860766 83 83 83 0.772575
0.296875 -0.280556 0.467047 34 34 34 0.772575
0.021875 -0.277778 0.399081 75 75 75 0.772575
0.093750 -0.277778 0.601073 76 76 76 0.772575
0.165625 -0.277778 0.802118 82 82 82 0.772575
0.237500 -0.277778 0.828801 65 65 65 0.772575
0.309375 -0.277778 0.377382 26 26 26 0.772575
0.034375 -0.275000 0.437058 86 86 86 0.772575
0.106250 -0.275000 0.638118 84 84 84 0.772575
0.178125 -0.275000 0.839169 87 87 87 0.772575
0.250000 -0.275000 0.766996 50 50 50 0.772575
0.321875 -0.275000 0.279019 13 13 13 0.772575
0.046875 -0.272222 0.474112 85 85 85 0.772575
0.118750 -0.272222 0.675163 89 89 89 0.772575
0.190625 -0.272222 0.864413 92 92 92 0.772575
0.262500 -0.272222 0.691931 46 46 46 0.772575
0.334375 -0.272222 0.171842 11 11 11 0.772575
0.059375 -0.269444 0.511160 82 82 82 0.772575
0.131250 -0.269444 0.660348 17 17 17 0.772575
0.203125 -0.269444 0.873916 92 92 92 0.772575
0.275000 -0.269444 0.616523 44 44 44 0.772575
0.071875 -0.266667 0.548209 80 80 80 0.772575
0.143750 -0.266667 0.651412 21 21 21 0.772575
0.215625 -0.266667 0.868004 86 86 86 0.772575
0.287500 -0.266667 0.536016 39 39 39 0.772575
0.012500 -0.263889 0.379046 67 67 67 0.772575
0.084375 -0.263889 0.585259 78 78 78 0.772575
0.156250 -0.263889 0.782660 35 35 35 0.772575
0.228125 -0.263889 0.845570 76 76 76 0.772575
0.300000 -0.263889 0.454869 35 35 35 0.772575
0.025000 -0.261111 0.421244 80 80 80 0.772575
0.096875 -0.261111 0.622304 84 84 84 0.772575
0.168750 -0.261111 0.823351 85 85 85 0.772575
0.240625 -0.261111 0.797599 52 52 52 0.772575
0.312500 -0.261111 0.366102 31 31 31 0.772575
0.037500 -0.258333 0.458293 89 89 89 0.772575
0.109375 -0.258333 0.659347 89 89 89 0.772575
0.181250 -0.258333 0.856488 92 92 92 0.772575
0.253125 -0.258333 0.725377 51 51 51 0.772575
0.325000 -0.258333 0.278892 26 26 26 0.772575
0.050000 -0.255556 0.495341 84 84 84 0.772575
0.121875 -0.255556 0.696396 88 88 88 0.772575
0.193750 -0.255556 0.871195 94 94 94 0.772575
0.265625 -0.255556 0.652774 47 47 47 0.772575
0.337500 -0.255556 0.186034 16 16 16 0.772575
0.062500 -0.252778 0.532389 82 82 82 0.772575
0.134375 -0.252778 0.691747 10 10 10 0.772575
0.206250 -0.252778 0.872238 90 90 90 0.772575
0.278125 -0.252778 0.579933 44 44 44 0.772575
0.003125 -0.250000 0.349168 51 51 51 0.772575
0.075000 -0.250000 0.569438 83 83 83 0.772575
0.146875 -0.250000 0.700486 8 8 8 0.772575
0.218750 -0.250000 0.856869 83 83 83 0.772575
0.290625 -0.250000 0.504582 39 39 39 0.772575
0.015625 -0.247222 0.405423 79 79 79 0.772575
0.087500 -0.247222 0.606488 82 82 82 0.772575
0.159375 -0.247222 0.807532 83 83 83 0.772575
0.231250 -0.247222 0.822822 62 62 62 0.772575
0.303125 -0.247222 0.428712 36 36 36 0.772575
0.028125 -0.244444 0.442471 84 84 84 0.772575
0.100000 -0.244444 0.643531 88 88 88 0.772575
0.171875 -0.244444 0.843546 90 90 90 0.772575
0.243750 -0.244444 0.756389 41 41 41 0.772575
0.315625 -0.244444 0.347463 31 31 31 0.772575
0.040625 -0.241667 0.479524 89 89 89 0.772575
0.112500 -0.241667 0.680571 92 92 92 0.772575
0.184375 -0.241667 0.867054 94 94 94 0.772575
0.256250 -0.241667 0.683769 50 50 50 0.772575
0.328125 -0.241667 0.265755 28 28 28 0.772575
0.053125 -0.238889 0.516569 82 82 82 0.772575
0.125000 -0.238889 0.717623 87 87 87 0.772575
0.196875 -0.238889 0.873848 94 94 94 0.772575
0.268750 -0.238889 0.611164 47 47 47 0.772575
0.340625 -0.238889 0.177892 23 23 23 0.772575
-0.006250 -0.236111 0.295786 31 31 31 0.772575
0.065625 -0.236111 0.553617 83 83 83 0.772575
0.137500 -0.236111 0.754670 78 78 78 0.772575
0.209375 -0.236111 0.865824 88 88 88 0.772575
0.281250 -0.236111 0.538553 44 44 44 0.772575
0.006250 -0.233333 0.386593 71 71 71 0.772575
0.078125 -0.233333 0.590667 84 84 84 0.772575
0.150000 -0.233333 0.791723 82 82 82 0.772575
0.221875 -0.233333 0.840397 73 73 73 0.772575
0.293750 -0.233333 0.465942 41 41 41 0.772575
0.018750 -0.230556 0.426655 80 80 80 0.772575
0.090625 -0.230556 0.627717 86 86 86 0.772575
0.162500 -0.230556 0.828765 86 86 86 0.772575
0.234375 -0.230556 0.787395 48 48 48 0.772575
0.306250 -0.230556 0.392546 37 37 37 0.772575
0.031250 -0.227778 0.463697 90 90 90 0.772575
0.103125 -0.227778 0.664755 91 91 91 0.772575
0.175000 -0.227778 0.859294 94 94 94 0.772575
0.246875 -0.227778 0.714765 41 41 41 0.772575
0.318750 -0.227778 0.317208 32 32 32 0.772575
0.043750 -0.225000 0.498615 88 88 88 0.772575
0.115625 -0.225000 0.701803 91 91 91 0.772575
0.187500 -0.225000 0.872309 96 96 96 0.772575
0.259375 -0.225000 0.629768 48 48 48 0.772575
0.331250 -0.225000 0.240057 27 27 27 0.772575
0.056250 -0.222222 0.537796 83 83 83 0.772575
0.128125 -0.222222 0.738846 85 85 85 0.772575
0.200000 -0.222222 0.871213 91 91 91 0.772575
0.271875 -0.222222 0.569556 49 49 49 0.772575
0.343750 -0.222222 0.124972 11 11 11 0.772575
-0.003125 -0.219444 0.361247 59 59 59 0.772575
0.068750 -0.219444 0.574847 84 84 84 0.772575
0.140625 -0.219444 0.775902 81 81 81 0.772575
0.212500 -0.219444 0.852973 82 82 82 0.772575
0.284375 -0.219444 0.496942 44 44 44 0.772575
0.009375 -0.216667 0.410835 78 78 78 0.772575
0.081250 -0.216667 0.611898 84 84 84 0.772575
0.153125 -0.216667 0.812951 86 86 86 0.772575
0.225000 -0.216667 0.814422 60 60 60 0.772575
0.296875 -0.216667 0.424331 41 41 41 0.772575
0.021875 -0.213889 0.447887 81 81 81 0.772575
0.093750 -0.213889 0.648941 88 88 88 0.772575
0.165625 -0.213889 0.847927 92 92 92 0.772575
0.237500 -0.213889 0.745786 33 33 33 0.772575
0.309375 -0.213889 0.351720 38 38 38 0.772575
0.034375 -0.211111 0.452696 22 22 22 0.772575
0.106250 -0.211111 0.685979 93 93 93 0.772575
0.178125 -0.211111 0.869154 96 96 96 0.772575
0.250000 -0.211111 0.567544 23 23 23 0.772575
0.321875 -0.211111 0.279109 35 35 35 0.772575
0.046875 -0.208333 0.460391 19 19 19 0.772575
0.118750 -0.208333 0.723028 89 89 89 0.772575
0.190625 -0.208333 0.873518 94 94 94 0.772575
0.262500 -0.208333 0.588938 66 66 66 0.772575
0.334375 -0.208333 0.205159 30 30 30 0.772575
-0.012500 -0.205556 0.319140 40 40 40 0.772575
0.059375 -0.205556 0.559028 83 83 83 0.772575
0.131250 -0.205556 0.760077 86 86 86 0.772575
0.203125 -0.205556 0.863322 88 88 88 0.772575
0.275000 -0.205556 0.527935 45 45 45 0.772575
0.000000 -0.202778 0.393095 73 73 73 0.772575
0.071875 -0.202778 0.596079 75 75 75 0.772575
0.143750 -0.202778 0.797130 85 85 85 0.772575
0.215625 -0.202778 0.834427 71 71 71 0.772575
0.287500 -0.202778 0.455318 43 43 43 0.772575
0.012500 -0.200000 0.432067 80 80 80 0.772575
0.084375 -0.200000 0.633124 89 89 89 0.772575
0.156250 -0.200000 0.834178 87 87 87 0.772575
0.228125 -0.200000 0.776790 43 43 43 0.772575
0.300000 -0.200000 0.382719 45 45 45 0.772575
0.025000 -0.197222 0.446962 23 23 23 0.772575
0.096875 -0.197222 0.670164 90 90 90 0.772575
0.168750 -0.197222 0.862002 96 96 96 0.772575
0.240625 -0.197222 0.565621 18 18 18 0.772575
0.312500 -0.197222 0.310105 43 43 43 0.772575
0.037500 -0.194444 0.426839 25 25 25 0.772575
0.109375 -0.194444 0.707208 92 92 92 0.772575
0.181250 -0.194444 0.873294 97 97 97 0.772575
0.253125 -0.194444 0.559021 25 25 25 0.772575
0.325000 -0.194444 0.237496 45 45 45 0.772575
0.050000 -0.191667 0.440181 22 22 22 0.772575
0.121875 -0.191667 0.744260 87 87 87 0.772575
0.193750 -0.191667 0.869544 91 91 91 0.772575
0.265625 -0.191667 0.558923 67 67 67 0.772575
0.337500 -0.191667 0.153705 22 22 22 0.772575
-0.009375 -0.188889 0.370323 64 64 64 0.772575
0.062500 -0.188889 0.580253 72 72 72 0.772575
0.134375 -0.188889 0.781308 86 86 86 0.772575
0.206250 -0.188889 0.849128 81 81 81 0.772575
0.278125 -0.188889 0.486319 38 38 38 0.772575
0.003125 -0.186111 0.416246 78 78 78 0.772575
0.075000 -0.186111 0.617306 88 88 88 0.772575
0.146875 -0.186111 0.818360 87 87 87 0.772575
0.218750 -0.186111 0.805600 57 57 57 0.772575
0.290625 -0.186111 0.413717 37 37 37 0.772575
0.015625 -0.183333 0.453297 91 91 91 0.772575
0.087500 -0.183333 0.654356 93 93 93 0.772575
0.159375 -0.183333 0.852324 94 94 94 0.772575
0.231250 -0.183333 0.735185 30 30 30 0.772575
0.303125 -0.183333 0.303615 17 17 17 0.772575
0.028125 -0.180556 0.436875 22 22 22 0.772575
0.100000 -0.180556 0.691388 92 92 92 0.772575
0.171875 -0.180556 0.870269 98 98 98 0.772575
0.243750 -0.180556 0.560079 22 22 22 0.772575
0.315625 -0.180556 0.268502 55 55 55 0.772575
0.040625 -0.177778 0.425250 24 24 24 0.772575
0.112500 -0.177778 0.728447 88 88 88 0.772575
0.184375 -0.177778 0.872915 95 95 95 0.772575
0.256250 -0.177778 0.564099 24 24 24 0.772575
0.328125 -0.177778 0.195888 35 35 35 0.772575
-0.018750 -0.175000 0.336465 47 47 47 0.772575
0.053125 -0.175000 0.464124 16 16 16 0.772575
0.125000 -0.175000 0.765489 86 86 86 0.772575
0.196875 -0.175000 0.860382 88 88 88 0.772575
0.268750 -0.175000 0.517325 42 42 42 0.772575
-0.006250 -0.172222 0.399576 75 75 75 0.772575
0.065625 -0.172222 0.601487 86 86 86 0.772575
0.137500 -0.172222 0.802540 87 87 87 0.772575
0.209375 -0.172222 0.828447 68 68 68 0.772575
0.281250 -0.172222 0.444709 29 29 29 0.772575
0.006250 -0.169444 0.437477 86 86 86 0.772575
0.078125 -0.169444 0.638532 92 92 92 0.772575
0.150000 -0.169444 0.839523 89 89 89 0.772575
0.221875 -0.169444 0.766182 48 48 48 0.772575
0.293750 -0.169444 0.256652 23 23 23 0.772575
0.018750 -0.166667 0.472730 85 85 85 0.772575
0.090625 -0.166667 0.675577 93 93 93 0.772575
0.162500 -0.166667 0.864613 97 97 97 0.772575
0.234375 -0.166667 0.682856 18 18 18 0.772575
0.306250 -0.166667 0.268388 24 24 24 0.772575
0.031250 -0.163889 0.445557 18 18 18 0.772575
0.103125 -0.163889 0.696856 93 93 93 0.772575
0.175000 -0.163889 0.873944 98 98 98 0.772575
0.246875 -0.163889 0.582698 15 15 15 0.772575
0.318750 -0.163889 0.226889 39 39 39 0.772575
0.043750 -0.161111 0.445012 18 18 18 0.772575
0.115625 -0.161111 0.740521 81 81 81 0.772575
0.187500 -0.161111 0.867524 92 92 92 0.772575
0.259375 -0.161111 0.548320 60 60 60 0.772575
0.331250 -0.161111 0.139105 19 19 19 0.772575
-0.015625 -0.158333 0.362903 60 60 60 0.772575
0.056250 -0.158333 0.585669 84 84 84 0.772575
0.128125 -0.158333 0.786721 87 87 87 0.772575
0.200000 -0.158333 0.845416 79 79 79 0.772575
0.271875 -0.158333 0.475721 41 41 41 0.772575
-0.003125 -0.155556 0.421654 78 78 78 0.772575
0.068750 -0.155556 0.622714 91 91 91 0.772575
0.140625 -0.155556 0.823772 84 84 84 0.772575
0.212500 -0.155556 0.796926 53 53 53 0.772575
0.284375 -0.155556 0.265587 17 17 17 0.772575
0.009375 -0.152778 0.458700 82 82 82 0.772575
0.081250 -0.152778 0.659759 96 96 96 0.772575
0.153125 -0.152778 0.856720 96 96 96 0.772575
0.225000 -0.152778 0.724567 46 46 46 0.772575
0.296875 -0.152778 0.253327 24 24 24 0.772575
0.021875 -0.150000 0.495757 82 82 82 0.772575
0.093750 -0.150000 0.662390 22 22 22 0.772575
0.165625 -0.150000 0.871368 99 99 99 0.772575
0.237500 -0.150000 0.651952 39 39 39 0.772575
0.309375 -0.150000 0.255178 65 65 65 0.772575
0.034375 -0.147222 0.524212 61 61 61 0.772575
0.106250 -0.147222 0.656424 23 23 23 0.772575
0.178125 -0.147222 0.872171 95 95 95 0.772575
0.250000 -0.147222 0.579329 48 48 48 0.772575
0.321875 -0.147222 0.184204 35 35 35 0.772575
-0.025000 -0.144444 0.304927 35 35 35 0.772575
0.046875 -0.144444 0.569850 78 78 78 0.772575
0.118750 -0.144444 0.760000 70 70 70 0.772575
0.190625 -0.144444 0.856485 86 86 86 0.772575
0.262500 -0.144444 0.506719 49 49 49 0.772575
-0.012500 -0.141667 0.399972 70 70 70 0.772575
0.059375 -0.141667 0.606896 89 89 89 0.772575
0.131250 -0.141667 0.807952 79 79 79 0.772575
0.203125 -0.141667 0.822424 65 65 65 0.772575
0.275000 -0.141667 0.434099 42 42 42 0.772575
0.000000 -0.138889 0.440585 75 75 75 0.772575
0.071875 -0.138889 0.643946 92 92 92 0.772575
0.143750 -0.138889 0.843882 92 92 92 0.772575
0.215625 -0.138889 0.755572 49 49 49 0.772575
0.287500 -0.138889 0.261685 20 20 20 0.772575
0.012500 -0.136111 0.479565 79 79 79 0.772575
0.084375 -0.136111 0.670718 98 98 98 0.772575
0.156250 -0.136111 0.867142 98 98 98 0.772575
0.228125 -0.136111 0.682953 45 45 45 0.772575
0.300000 -0.136111 0.262043 23 23 23 0.772575
0.025000 -0.133333 0.516981 84 84 84 0.772575
0.096875 -0.133333 0.644838 24 24 24 0.772575
0.168750 -0.133333 0.873740 98 98 98 0.772575
0.240625 -0.133333 0.610338 30 30 30 0.772575
0.312500 -0.133333 0.216279 40 40 40 0.772575
0.037500 -0.130556 0.554031 84 84 84 0.772575
0.109375 -0.130556 0.649359 24 24 24 0.772575
0.181250 -0.130556 0.865383 92 92 92 0.772575
0.253125 -0.130556 0.432439 18 18 18 0.772575
0.325000 -0.130556 0.107723 11 11 11 0.772575
-0.021875 -0.127778 0.334441 46 46 46 0.772575
0.050000 -0.127778 0.591077 85 85 85 0.772575
0.121875 -0.127778 0.792126 72 72 72 0.772575
0.193750 -0.127778 0.839823 76 76 76 0.772575
0.265625 -0.127778 0.449048 60 60 60 0.772575
-0.009375 -0.125000 0.411033 70 70 70 0.772575
0.062500 -0.125000 0.628123 85 85 85 0.772575
0.134375 -0.125000 0.829182 86 86 86 0.772575
0.206250 -0.125000 0.786574 50 50 50 0.772575
0.278125 -0.125000 0.392500 39 39 39 0.772575
0.003125 -0.122222 0.454163 74 74 74 0.772575
0.075000 -0.122222 0.665165 89 89 89 0.772575
0.146875 -0.122222 0.859592 97 97 97 0.772575
0.218750 -0.122222 0.713959 48 48 48 0.772575
0.290625 -0.122222 0.298638 58 58 58 0.772575
0.015625 -0.119444 0.497289 77 77 77 0.772575
0.087500 -0.119444 0.666512 18 18 18 0.772575
0.159375 -0.119444 0.872335 99 99 99 0.772575
0.231250 -0.119444 0.641341 39 39 39 0.772575
0.303125 -0.119444 0.247273 60 60 60 0.772575
0.028125 -0.116667 0.536301 81 81 81 0.772575
0.100000 -0.116667 0.647577 22 22 22 0.772575
0.171875 -0.116667 0.871084 95 95 95 0.772575
0.243750 -0.116667 0.424581 18 18 18 0.772575
0.315625 -0.116667 0.168335 31 31 31 0.772575
0.040625 -0.113889 0.575258 84 84 84 0.772575
0.112500 -0.113889 0.673367 18 18 18 0.772575
0.184375 -0.113889 0.852685 84 84 84 0.772575
0.256250 -0.113889 0.407807 24 24 24 0.772575
-0.018750 -0.111111 0.345586 51 51 51 0.772575
0.053125 -0.111111 0.612305 85 85 85 0.772575
0.125000 -0.111111 0.813364 82 82 82 0.772575
0.196875 -0.111111 0.813602 62 62 62 0.772575
0.268750 -0.111111 0.419562 64 64 64 0.772575
-0.006250 -0.108333 0.412673 67 67 67 0.772575
0.065625 -0.108333 0.649351 85 85 85 0.772575
0.137500 -0.108333 0.848240 94 94 94 0.772575
0.209375 -0.108333 0.744962 49 49 49 0.772575
0.281250 -0.108333 0.350898 39 39 39 0.772575
0.006250 -0.105556 0.460665 72 72 72 0.772575
0.078125 -0.105556 0.686395 86 86 86 0.772575
0.150000 -0.105556 0.869342 99 99 99 0.772575
0.221875 -0.105556 0.672347 48 48 48 0.772575
0.293750 -0.105556 0.278286 47 47 47 0.772575
0.018750 -0.102778 0.507597 77 77 77 0.772575
0.090625 -0.102778 0.691401 12 12 12 0.772575
0.162500 -0.102778 0.873136 98 98 98 0.772575
0.234375 -0.102778 0.599735 32 32 32 0.772575
0.306250 -0.102778 0.205669 41 41 41 0.772575
0.031250 -0.100000 0.550727 81 81 81 0.772575
0.103125 -0.100000 0.681783 14 14 14 0.772575
0.175000 -0.100000 0.863162 91 91 91 0.772575
0.246875 -0.100000 0.405675 20 20 20 0.772575
0.043750 -0.097222 0.593037 82 82 82 0.772575
0.115625 -0.097222 0.797538 81 81 81 0.772575
0.187500 -0.097222 0.833954 73 73 73 0.772575
0.259375 -0.097222 0.406731 25 25 25 0.772575
-0.015625 -0.094444 0.337240 44 44 44 0.772575
0.056250 -0.094444 0.632017 86 86 86 0.772575
0.128125 -0.094444 0.834591 89 89 89 0.772575
0.200000 -0.094444 0.775964 50 50 50 0.772575
0.271875 -0.094444 0.381909 45 45 45 0.772575
-0.003125 -0.091667 0.404313 59 59 59 0.772575
0.068750 -0.091667 0.670578 86 86 86 0.772575
0.140625 -0.091667 0.862173 98 98 98 0.772575
0.212500 -0.091667 0.703354 36 36 36 0.772575
0.284375 -0.091667 0.309288 41 41 41 0.772575
0.009375 -0.088889 0.459420 67 67 67 0.772575
0.081250 -0.088889 0.707624 86 86 86 0.772575
0.153125 -0.088889 0.873302 100 100 100 0.772575
0.225000 -0.088889 0.627701 53 53 53 0.772575
0.296875 -0.088889 0.236668 45 45 45 0.772575
0.021875 -0.086111 0.510221 73 73 73 0.772575
0.093750 -0.086111 0.744675 81 81 81 0.772575
0.165625 -0.086111 0.869152 94 94 94 0.772575
0.237500 -0.086111 0.542709 11 11 11 0.772575
0.309375 -0.086111 0.156968 27 27 27 0.772575
0.034375 -0.083333 0.558215 79 79 79 0.772575
0.106250 -0.083333 0.781728 87 87 87 0.772575
0.178125 -0.083333 0.848973 82 82 82 0.772575
0.250000 -0.083333 0.415811 19 19 19 0.772575
0.046875 -0.080556 0.604161 83 83 83 0.772575
0.118750 -0.080556 0.818773 85 85 85 0.772575
0.190625 -0.080556 0.804923 58 58 58 0.772575
0.262500 -0.080556 0.409794 68 68 68 0.772575
-0.012500 -0.077778 0.239422 15 15 15 0.772575
0.059375 -0.077778 0.647285 86 86 86 0.772575
0.131250 -0.077778 0.852599 95 95 95 0.772575
0.203125 -0.077778 0.734352 48 48 48 0.772575
0.275000 -0.077778 0.340298 45 45 45 0.772575
0.000000 -0.075000 0.375488 42 42 42 0.772575
0.071875 -0.075000 0.688752 88 88 88 0.772575
0.143750 -0.075000 0.870409 100 100 100 0.772575
0.215625 -0.075000 0.573513 22 22 22 0.772575
0.287500 -0.075000 0.267678 42 42 42 0.772575
0.012500 -0.072222 0.444402 56 56 56 0.772575
0.084375 -0.072222 0.727734 88 88 88 0.772575
0.156250 -0.072222 0.872533 98 98 98 0.772575
0.228125 -0.072222 0.581732 71 71 71 0.772575
0.300000 -0.072222 0.195058 43 43 43 0.772575
0.025000 -0.069444 0.503515 65 65 65 0.772575
0.096875 -0.069444 0.765903 88 88 88 0.772575
0.168750 -0.069444 0.859998 89 89 89 0.772575
0.240625 -0.069444 0.510216 32 32 32 0.772575
0.037500 -0.066667 0.557874 74 74 74 0.772575
0.109375 -0.066667 0.802955 88 88 88 0.772575
0.181250 -0.066667 0.828085 70 70 70 0.772575
0.253125 -0.066667 0.440202 56 56 56 0.772575
0.050000 -0.063889 0.607770 79 79 79 0.772575
0.121875 -0.063889 0.839858 91 91 91 0.772575
0.193750 -0.063889 0.765353 51 51 51 0.772575
0.265625 -0.063889 0.371296 53 53 53 0.772575
0.062500 -0.061111 0.655772 85 85 85 0.772575
0.134375 -0.061111 0.864702 99 99 99 0.772575
0.206250 -0.061111 0.562239 21 21 21 0.772575
0.278125 -0.061111 0.298685 46 46 46 0.772575
0.075000 -0.058333 0.700725 89 89 89 0.772575
0.146875 -0.058333 0.873961 99 99 99 0.772575
0.218750 -0.058333 0.561366 25 25 25 0.772575
0.290625 -0.058333 0.226062 46 46 46 0.772575
0.015625 -0.055556 0.399157 38 38 38 0.772575
0.087500 -0.055556 0.743843 90 90 90 0.772575
0.159375 -0.055556 0.867012 93 93 93 0.772575
0.231250 -0.055556 0.547529 61 61 61 0.772575
0.303125 -0.055556 0.138151 20 20 20 0.772575
0.028125 -0.052778 0.479097 49 49 49 0.772575
0.100000 -0.052778 0.784469 91 91 91 0.772575
0.171875 -0.052778 0.845117 79 79 79 0.772575
0.243750 -0.052778 0.474916 39 39 39 0.772575
0.040625 -0.050000 0.544481 63 63 63 0.772575
0.112500 -0.050000 0.823451 91 91 91 0.772575
0.184375 -0.050000 0.796254 54 54 54 0.772575
0.256250 -0.050000 0.402304 39 39 39 0.772575
0.053125 -0.047222 0.602715 71 71 71 0.772575
0.125000 -0.047222 0.856957 96 96 96 0.772575
0.196875 -0.047222 0.723743 26 26 26 0.772575
0.268750 -0.047222 0.312884 53 53 53 0.772575
0.065625 -0.044444 0.656328 80 80 80 0.772575
0.137500 -0.044444 0.871376 100 100 100 0.772575
0.209375 -0.044444 0.555354 23 23 23 0.772575
0.281250 -0.044444 0.257072 53 53 53 0.772575
0.078125 -0.041667 0.705322 85 85 85 0.772575
0.150000 -0.041667 0.871929 97 97 97 0.772575
0.221875 -0.041667 0.560422 86 86 86 0.772575
0.293750 -0.041667 0.183788 39 39 39 0.772575
0.090625 -0.038889 0.753328 89 89 89 0.772575
0.162500 -0.038889 0.856242 86 86 86 0.772575
0.234375 -0.038889 0.505909 41 41 41 0.772575
0.103125 -0.036111 0.797282 92 92 92 0.772575
0.175000 -0.036111 0.821604 66 66 66 0.772575
0.246875 -0.036111 0.433298 25 25 25 0.772575
0.043750 -0.033333 0.504879 45 45 45 0.772575
0.115625 -0.033333 0.838200 94 94 94 0.772575
0.187500 -0.033333 0.754738 36 36 36 0.772575
0.259375 -0.033333 0.262004 22 22 22 0.772575
0.056250 -0.030556 0.581165 58 58 58 0.772575
0.128125 -0.030556 0.859754 99 99 99 0.772575
0.200000 -0.030556 0.597168 10 10 10 0.772575
0.271875 -0.030556 0.279685 60 60 60 0.772575
0.068750 -0.027778 0.644570 69 69 69 0.772575
0.140625 -0.027778 0.872452 99 99 99 0.772575
0.212500 -0.027778 0.575647 19 19 19 0.772575
0.284375 -0.027778 0.215451 42 42 42 0.772575
0.081250 -0.025000 0.701912 76 76 76 0.772575
0.153125 -0.025000 0.864871 91 91 91 0.772575
0.225000 -0.025000 0.536921 56 56 56 0.772575
0.296875 -0.025000 0.110827 11 11 11 0.772575
0.093750 -0.022222 0.754783 85 85 85 0.772575
0.165625 -0.022222 0.839248 77 77 77 0.772575
0.237500 -0.022222 0.464302 33 33 33 0.772575
0.106250 -0.019444 0.802878 89 89 89 0.772575
0.178125 -0.019444 0.785743 53 53 53 0.772575
0.250000 -0.019444 0.257231 19 19 19 0.772575
0.118750 -0.016667 0.834277 94 94 94 0.772575
0.190625 -0.016667 0.713139 48 48 48 0.772575
0.262500 -0.016667 0.255381 25 25 25 0.772575
0.059375 -0.013889 0.497386 26 26 26 0.772575
0.131250 -0.013889 0.857252 97 97 97 0.772575
0.203125 -0.013889 0.635990 43 43 43 0.772575
0.275000 -0.013889 0.246458 53 53 53 0.772575
-0.143750 -0.011111 0.002004 12 12 12 0.772575
0.071875 -0.011111 0.608500 52 52 52 0.772575
0.143750 -0.011111 0.854509 93 93 93 0.772575
0.215625 -0.011111 0.567926 56 56 56 0.772575
0.287500 -0.011111 0.170831 35 35 35 0.772575
0.084375 -0.008333 0.682372 64 64 64 0.772575
0.156250 -0.008333 0.843668 84 84 84 0.772575
0.228125 -0.008333 0.495313 38 38 38 0.772575
0.096875 -0.005556 0.744665 73 73 73 0.772575
0.168750 -0.005556 0.812920 62 62 62 0.772575
0.240625 -0.005556 0.422702 25 25 25 0.772575
-0.178125 -0.002778 0.078685 29 29 29 0.772575
0.109375 -0.002778 0.800791 81 81 81 0.772575
0.181250 -0.002778 0.744138 52 52 52 0.772575
0.253125 -0.002778 0.255780 22 22 22 0.772575
-0.165625 0.000000 0.108528 50 50 50 0.772575
0.121875 0.000000 0.833648 91 91 91 0.772575
0.193750 0.000000 0.671531 51 51 51 0.772575
0.265625 0.000000 0.260917 82 82 82 0.772575
-0.153125 0.002778 0.114167 51 51 51 0.772575
0.134375 0.002778 0.842331 90 90 90 0.772575
0.206250 0.002778 0.598922 49 49 49 0.772575
0.278125 0.002778 0.204846 41 41 41 0.772575
-0.140625 0.005556 0.094836 49 49 49 0.772575
0.146875 0.005556 0.826337 85 85 85 0.772575
0.218750 0.005556 0.526313 48 48 48 0.772575
-0.200000 0.008333 0.111777 31 31 31 0.772575
-0.128125 0.008333 0.047387 33 33 33 0.772575
0.087500 0.008333 0.619419 39 39 39 0.772575
0.159375 0.008333 0.811845 75 75 75 0.772575
0.231250 0.008333 0.453693 41 41 41 0.772575
-0.187500 0.011111 0.139080 51 51 51 0.772575
0.100000 0.011111 0.712102 58 58 58 0.772575
0.171875 0.011111 0.770341 58 58 58 0.772575
0.243750 0.011111 0.365973 19 19 19 0.772575
-0.175000 0.013889 0.151076 64 64 64 0.772575
0.112500 0.013889 0.781251 69 69 69 0.772575
0.184375 0.013889 0.700383 53 53 53 0.772575
0.256250 0.013889 0.288964 68 68 68 0.772575
-0.162500 0.016667 0.154655 71 71 71 0.772575
0.125000 0.016667 0.802756 78 78 78 0.772575
0.196875 0.016667 0.629911 50 50 50 0.772575
0.268750 0.016667 0.235846 45 45 45 0.772575
-0.221875 0.019444 0.143808 33 33 33 0.772575
-0.150000 0.019444 0.154037 72 72 72 0.772575
0.137500 0.019444 0.810738 79 79 79 0.772575
0.209375 0.019444 0.557297 49 49 49 0.772575
0.281250 0.019444 0.157837 29 29 29 0.772575
-0.209375 0.022222 0.169632 51 51 51 0.772575
-0.137500 0.022222 0.138050 64 64 64 0.772575
0.150000 0.022222 0.797635 74 74 74 0.772575
0.221875 0.022222 0.484684 48 48 48 0.772575
-0.196875 0.025000 0.180929 64 64 64 0.772575
-0.125000 0.025000 0.090146 45 45 45 0.772575
0.162500 0.025000 0.774981 65 65 65 0.772575
0.234375 0.025000 0.412070 46 46 46 0.772575
-0.184375 0.027778 0.184508 71 71 71 0.772575
0.175000 0.027778 0.714751 62 62 62 0.772575
0.246875 0.027778 0.339466 42 42 42 0.772575
-0.243750 0.030556 0.175430 35 35 35 0.772575
-0.171875 0.030556 0.183634 78 78 78 0.772575
0.115625 0.030556 0.729678 47 47 47 0.772575
0.187500 0.030556 0.650682 56 56 56 0.772575
0.259375 0.030556 0.266871 51 51 51 0.772575
-0.231250 0.033333 0.200184 53 53 53 0.772575
-0.159375 0.033333 0.179833 82 82 82 0.772575
0.128125 0.033333 0.752333 58 58 58 0.772575
0.200000 0.033333 0.583921 50 50 50 0.772575
0.271875 0.033333 0.194240 41 41 41 0.772575
-0.218750 0.036111 0.210783 64 64 64 0.772575
-0.146875 0.036111 0.172647 84 84 84 0.772575
0.140625 0.036111 0.766040 62 62 62 0.772575
0.212500 0.036111 0.514051 46 46 46 0.772575
-0.206250 0.038889 0.214481 72 72 72 0.772575
-0.134375 0.038889 0.153143 78 78 78 0.772575
0.153125 0.038889 0.751737 60 60 60 0.772575
0.225000 0.038889 0.443078 46 46 46 0.772575
-0.265625 0.041667 0.207019 36 36 36 0.772575
-0.193750 0.041667 0.213227 78 78 78 0.772575
-0.121875 0.041667 0.109864 60 60 60 0.772575
0.165625 0.041667 0.703290 60 60 60 0.772575
0.237500 0.041667 0.370464 45 45 45 0.772575
-0.253125 0.044444 0.230395 53 53 53 0.772575
-0.181250 0.044444 0.209094 82 82 82 0.772575
0.178125 0.044444 0.648471 58 58 58 0.772575
0.250000 0.044444 0.297851 43 43 43 0.772575
-0.240625 0.047222 0.240636 64 64 64 0.772575
-0.168750 0.047222 0.201397 84 84 84 0.772575
0.190625 0.047222 0.591293 56 56 56 0.772575
0.262500 0.047222 0.225243 50 50 50 0.772575
-0.228125 0.050000 0.244457 72 72 72 0.772575
-0.156250 0.050000 0.192254 87 87 87 0.772575
0.203125 0.050000 0.529689 54 54 54 0.772575
0.275000 0.050000 0.138470 21 21 21 0.772575
-0.287500 0.052778 0.237943 37 37 37 0.772575
-0.215625 0.052778 0.242820 78 78 78 0.772575
-0.143750 0.052778 0.182293 85 85 85 0.772575
0.143750 0.052778 0.660218 44 44 44 0.772575
0.215625 0.052778 0.465696 48 48 48 0.772575
-0.275000 0.055556 0.260585 54 54 54 0.772575
-0.203125 0.055556 0.238355 82 82 82 0.772575
-0.131250 0.055556 0.162755 78 78 78 0.772575
0.156250 0.055556 0.646692 49 49 49 0.772575
0.228125 0.055556 0.397507 42 42 42 0.772575
-0.262500 0.058333 0.270490 65 65 65 0.772575
-0.190625 0.058333 0.230689 84 84 84 0.772575
-0.118750 0.058333 0.119753 60 60 60 0.772575
0.168750 0.058333 0.612346 52 52 52 0.772575
0.240625 0.058333 0.327812 43 43 43 0.772575
-0.250000 0.061111 0.274433 73 73 73 0.772575
-0.178125 0.061111 0.221439 87 87 87 0.772575
0.181250 0.061111 0.570320 50 50 50 0.772575
0.253125 0.061111 0.256245 42 42 42 0.772575
-0.309375 0.063889 0.268866 38 38 38 0.772575
-0.237500 0.063889 0.272412 79 79 79 0.772575
-0.165625 0.063889 0.211582 87 87 87 0.772575
0.193750 0.063889 0.520907 50 50 50 0.772575
0.265625 0.063889 0.182790 38 38 38 0.772575
-0.296875 0.066667 0.290775 54 54 54 0.772575
-0.225000 0.066667 0.267615 83 83 83 0.772575
-0.153125 0.066667 0.201727 87 87 87 0.772575
0.206250 0.066667 0.464644 48 48 48 0.772575
-0.284375 0.069444 0.300388 65 65 65 0.772575
-0.212500 0.069444 0.259995 85 85 85 0.772575
-0.140625 0.069444 0.191805 85 85 85 0.772575
0.218750 0.069444 0.407853 50 50 50 0.772575
-0.271875 0.072222 0.304370 73 73 73 0.772575
-0.200000 0.072222 0.250623 87 87 87 0.772575
-0.128125 0.072222 0.172366 79 79 79 0.772575
0.231250 0.072222 0.344530 46 46 46 0.772575
-0.331250 0.075000 0.267011 26 26 26 0.772575
-0.259375 0.075000 0.301987 79 79 79 0.772575
-0.187500 0.075000 0.240767 87 87 87 0.772575
-0.115625 0.075000 0.129642 61 61 61 0.772575
0.171875 0.075000 0.487454 39 39 39 0.772575
0.243750 0.075000 0.280710 39 39 39 0.772575
-0.318750 0.077778 0.318908 53 53 53 0.772575
-0.246875 0.077778 0.296876 83 83 83 0.772575
-0.175000 0.077778 0.230911 87 87 87 0.772575
0.184375 0.077778 0.469172 43 43 43 0.772575
0.256250 0.077778 0.211267 38 38 38 0.772575
-0.306250 0.080556 0.330364 66 66 66 0.772575
-0.234375 0.080556 0.289301 85 85 85 0.772575
-0.162500 0.080556 0.221054 87 87 87 0.772575
0.196875 0.080556 0.432389 42 42 42 0.772575
0.268750 0.080556 0.105434 11 11 11 0.772575
-0.293750 0.083333 0.333903 74 74 74 0.772575
-0.221875 0.083333 0.279807 87 87 87 0.772575
-0.150000 0.083333 0.211194 87 87 87 0.772575
0.209375 0.083333 0.387896 40 40 40 0.772575
-0.281250 0.086111 0.331520 80 80 80 0.772575
-0.209375 0.086111 0.269951 87 87 87 0.772575
-0.137500 0.086111 0.201318 85 85 85 0.772575
0.221875 0.086111 0.338134 40 40 40 0.772575
-0.340625 0.088889 0.285219 32 32 32 0.772575
-0.268750 0.088889 0.326161 83 83 83 0.772575
-0.196875 0.088889 0.260095 87 87 87 0.772575
-0.125000 0.088889 0.181978 79 79 79 0.772575
0.234375 0.088889 0.281161 41 41 41 0.772575
-0.328125 0.091667 0.337384 56 56 56 0.772575
-0.256250 0.091667 0.318607 85 85 85 0.772575
-0.184375 0.091667 0.249510 84 84 84 0.772575
-0.112500 0.091667 0.139531 61 61 61 0.772575
0.246875 0.091667 0.223070 43 43 43 0.772575
-0.315625 0.094444 0.360755 71 71 71 0.772575
-0.243750 0.094444 0.308991 88 88 88 0.772575
-0.171875 0.094444 0.227616 83 83 83 0.772575
0.187500 0.094444 0.282372 18 18 18 0.772575
0.259375 0.094444 0.148302 20 20 20 0.772575
-0.303125 0.097222 0.361053 80 80 80 0.772575
-0.231250 0.097222 0.299134 88 88 88 0.772575
-0.159375 0.097222 0.230070 90 90 90 0.772575
0.200000 0.097222 0.312496 33 33 33 0.772575
-0.290625 0.100000 0.355467 83 83 83 0.772575
-0.218750 0.100000 0.289279 88 88 88 0.772575
-0.146875 0.100000 0.220665 87 87 87 0.772575
0.212500 0.100000 0.289551 37 37 37 0.772575
-0.350000 0.102778 0.252373 20 20 20 0.772575
-0.278125 0.102778 0.347913 85 85 85 0.772575
-0.206250 0.102778 0.279423 88 88 88 0.772575
-0.134375 0.102778 0.210808 87 87 87 0.772575
0.225000 0.102778 0.252890 30 30 30 0.772575
-0.337500 0.105556 0.335735 50 50 50 0.772575
-0.265625 0.105556 0.338176 88 88 88 0.772575
-0.193750 0.105556 0.269565 88 88 88 0.772575
-0.121875 0.105556 0.191589 79 79 79 0.772575
0.237500 0.105556 0.205400 29 29 29 0.772575
-0.325000 0.108333 0.371448 68 68 68 0.772575
-0.253125 0.108333 0.328319 88 88 88 0.772575
-0.181250 0.108333 0.203127 23 23 23 0.772575
-0.109375 0.108333 0.149420 61 61 61 0.772575
0.250000 0.108333 0.098884 11 11 11 0.772575
-0.312500 0.111111 0.380951 80 80 80 0.772575
-0.240625 0.111111 0.318462 88 88 88 0.772575
-0.168750 0.111111 0.190205 22 22 22 0.772575
-0.300000 0.113889 0.377218 88 88 88 0.772575
-0.228125 0.113889 0.308606 88 88 88 0.772575
-0.156250 0.113889 0.222401 14 14 14 0.772575
-0.287500 0.116667 0.367361 88 88 88 0.772575
-0.215625 0.116667 0.298751 88 88 88 0.772575
-0.143750 0.116667 0.230137 87 87 87 0.772575
0.215625 0.116667 0.132909 19 19 19 0.772575
-0.346875 0.119444 0.324389 42 42 42 0.772575
-0.275000 0.119444 0.357503 88 88 88 0.772575
-0.203125 0.119444 0.288895 88 88 88 0.772575
-0.131250 0.119444 0.220278 87 87 87 0.772575
0.228125 0.119444 0.136744 27 27 27 0.772575
-0.334375 0.122222 0.362880 58 58 58 0.772575
-0.262500 0.122222 0.347646 88 88 88 0.772575
-0.190625 0.122222 0.242458 16 16 16 0.772575
-0.118750 0.122222 0.201201 80 80 80 0.772575
-0.321875 0.125000 0.391407 76 76 76 0.772575
-0.250000 0.125000 0.337787 88 88 88 0.772575
-0.178125 0.125000 0.181763 25 25 25 0.772575
-0.106250 0.125000 0.159309 62 62 62 0.772575
-0.309375 0.127778 0.394354 87 87 87 0.772575
-0.237500 0.127778 0.327933 88 88 88 0.772575
-0.165625 0.127778 0.184665 23 23 23 0.772575
-0.296875 0.130556 0.386690 88 88 88 0.772575
-0.225000 0.130556 0.318079 88 88 88 0.772575
-0.153125 0.130556 0.232009 14 14 14 0.772575
-0.356250 0.133333 0.255998 21 21 21 0.772575
-0.284375 0.133333 0.376831 88 88 88 0.772575
-0.212500 0.133333 0.308223 88 88 88 0.772575
-0.140625 0.133333 0.239609 87 87 87 0.772575
-0.343750 0.136111 0.346141 48 48 48 0.772575
-0.271875 0.136111 0.366973 88 88 88 0.772575
-0.200000 0.136111 0.298366 88 88 88 0.772575
-0.128125 0.136111 0.229749 87 87 87 0.772575
-0.331250 0.138889 0.383992 72 72 72 0.772575
-0.259375 0.138889 0.327149 20 20 20 0.772575
-0.187500 0.138889 0.215707 20 20 20 0.772575
-0.115625 0.138889 0.210812 80 80 80 0.772575
-0.318750 0.141667 0.400984 82 82 82 0.772575
-0.246875 0.141667 0.312774 17 17 17 0.772575
-0.175000 0.141667 0.183502 25 25 25 0.772575
-0.103125 0.141667 0.169198 62 62 62 0.772575
-0.306250 0.144444 0.403769 87 87 87 0.772575
-0.234375 0.144444 0.336820 86 86 86 0.772575
-0.162500 0.144444 0.200402 19 19 19 0.772575
-0.365625 0.147222 0.062569 10 10 10 0.772575
-0.293750 0.147222 0.396160 89 89 89 0.772575
-0.221875 0.147222 0.327549 89 89 89 0.772575
-0.150000 0.147222 0.258937 88 88 88 0.772575
-0.353125 0.150000 0.286705 14 14 14 0.772575
-0.281250 0.150000 0.386305 89 89 89 0.772575
-0.209375 0.150000 0.317694 89 89 89 0.772575
-0.137500 0.150000 0.249079 88 88 88 0.772575
-0.340625 0.152778 0.359220 53 53 53 0.772575
-0.268750 0.152778 0.339782 18 18 18 0.772575
-0.196875 0.152778 0.307834 89 89 89 0.772575
-0.125000 0.152778 0.239220 88 88 88 0.772575
-0.328125 0.155556 0.393200 72 72 72 0.772575
-0.256250 0.155556 0.292313 25 25 25 0.772575
-0.184375 0.155556 0.229144 15 15 15 0.772575
-0.112500 0.155556 0.220424 80 80 80 0.772575
-0.315625 0.158333 0.410267 83 83 83 0.772575
-0.243750 0.158333 0.294776 20 20 20 0.772575
-0.171875 0.158333 0.210196 17 17 17 0.772575
-0.100000 0.158333 0.179087 62 62 62 0.772575
-0.375000 0.161111 -0.164440 10 10 10 0.772575
-0.303125 0.161111 0.413184 87 87 87 0.772575
-0.231250 0.161111 0.343196 74 74 74 0.772575
-0.159375 0.161111 0.268282 62 62 62 0.772575
-0.362500 0.163889 0.133878 10 10 10 0.772575
-0.290625 0.163889 0.405630 89 89 89 0.772575
-0.218750 0.163889 0.337019 89 89 89 0.772575
-0.146875 0.163889 0.268408 88 88 88 0.772575
-0.350000 0.166667 0.302174 24 24 24 0.772575
-0.278125 0.166667 0.395775 89 89 89 0.772575
-0.206250 0.166667 0.327165 89 89 89 0.772575
-0.134375 0.166667 0.258550 88 88 88 0.772575
-0.337500 0.169444 0.368263 53 53 53 0.772575
-0.265625 0.169444 0.317988 22 22 22 0.772575
-0.193750 0.169444 0.317303 89 89 89 0.772575
-0.121875 0.169444 0.248690 88 88 88 0.772575
-0.325000 0.172222 0.402408 72 72 72 0.772575
-0.253125 0.172222 0.283321 25 25 25 0.772575
-0.181250 0.172222 0.307447 89 89 89 0.772575
-0.109375 0.172222 0.230035 80 80 80 0.772575
-0.312500 0.175000 0.419551 83 83 83 0.772575
-0.240625 0.175000 0.300670 19 19 19 0.772575
-0.168750 0.175000 0.297590 89 89 89 0.772575
-0.096875 0.175000 0.188976 62 62 62 0.772575
-0.371875 0.177778 -0.044382 10 10 10 0.772575
-0.300000 0.177778 0.422600 88 88 88 0.772575
-0.228125 0.177778 0.356345 89 89 89 0.772575
-0.156250 0.177778 0.287735 89 89 89 0.772575
-0.359375 0.180556 0.150078 10 10 10 0.772575
-0.287500 0.180556 0.415102 89 89 89 0.772575
-0.215625 0.180556 0.346488 89 89 89 0.772575
-0.143750 0.180556 0.277879 88 88 88 0.772575
-0.346875 0.183333 0.310909 24 24 24 0.772575
-0.275000 0.183333 0.405246 89 89 89 0.772575
-0.203125 0.183333 0.327050 78 78 78 0.772575
-0.131250 0.183333 0.268020 88 88 88 0.772575
-0.334375 0.186111 0.377306 53 53 53 0.772575
-0.262500 0.186111 0.314880 22 22 22 0.772575
-0.190625 0.186111 0.320170 80 80 80 0.772575
-0.118750 0.186111 0.258161 88 88 88 0.772575
-0.321875 0.188889 0.411616 72 72 72 0.772575
-0.250000 0.188889 0.300899 22 22 22 0.772575
-0.178125 0.188889 0.316918 89 89 89 0.772575
-0.106250 0.188889 0.239647 80 80 80 0.772575
-0.381250 0.191667 -0.230412 10 10 10 0.772575
-0.309375 0.191667 0.428834 83 83 83 0.772575
-0.237500 0.191667 0.346660 10 10 10 0.772575
-0.165625 0.191667 0.307060 89 89 89 0.772575
-0.093750 0.191667 0.198865 63 63 63 0.772575
-0.368750 0.194444 -0.014252 10 10 10 0.772575
-0.296875 0.194444 0.432015 88 88 88 0.772575
-0.225000 0.194444 0.365820 89 89 89 0.772575
-0.153125 0.194444 0.297207 89 89 89 0.772575
-0.356250 0.197222 0.156105 10 10 10 0.772575
-0.284375 0.197222 0.424573 89 89 89 0.772575
-0.212500 0.197222 0.322147 18 18 18 0.772575
-0.140625 0.197222 0.287350 89 89 89 0.772575
-0.343750 0.200000 0.319295 23 23 23 0.772575
-0.271875 0.200000 0.414715 89 89 89 0.772575
-0.200000 0.200000 0.286727 21 21 21 0.772575
-0.128125 0.200000 0.277491 89 89 89 0.772575
-0.331250 0.202778 0.386348 53 53 53 0.772575
-0.259375 0.202778 0.360601 13 13 13 0.772575
-0.187500 0.202778 0.296914 17 17 17 0.772575
-0.115625 0.202778 0.267631 88 88 88 0.772575
-0.390625 0.205556 -0.441413 10 10 10 0.772575
-0.318750 0.205556 0.420734 72 72 72 0.772575
-0.246875 0.205556 0.384786 42 42 42 0.772575
-0.175000 0.205556 0.326387 89 89 89 0.772575
-0.103125 0.205556 0.249259 80 80 80 0.772575
-0.378125 0.208333 -0.183188 10 10 10 0.772575
-0.306250 0.208333 0.438118 83 83 83 0.772575
-0.234375 0.208333 0.385144 89 89 89 0.772575
-0.162500 0.208333 0.316531 89 89 89 0.772575
-0.090625 0.208333 0.208755 64 64 64 0.772575
-0.365625 0.211111 -0.006286 10 10 10 0.772575
-0.293750 0.211111 0.441431 88 88 88 0.772575
-0.221875 0.211111 0.373337 80 80 80 0.772575
-0.150000 0.211111 0.306679 89 89 89 0.772575
-0.353125 0.213889 0.046883 17 17 17 0.772575
-0.281250 0.213889 0.434044 89 89 89 0.772575
-0.209375 0.213889 0.284659 23 23 23 0.772575
-0.137500 0.213889 0.296819 89 89 89 0.772575
-0.340625 0.216667 0.327588 23 23 23 0.772575
-0.268750 0.216667 0.424184 89 89 89 0.772575
-0.196875 0.216667 0.270922 24 24 24 0.772575
-0.125000 0.216667 0.286961 89 89 89 0.772575
-0.328125 0.219444 0.395391 53 53 53 0.772575
-0.256250 0.219444 0.414329 89 89 89 0.772575
-0.184375 0.219444 0.294128 17 17 17 0.772575
-0.112500 0.219444 0.277102 89 89 89 0.772575
-0.387500 0.222222 -0.353342 10 10 10 0.772575
-0.315625 0.222222 0.429851 72 72 72 0.772575
-0.243750 0.222222 0.404469 89 89 89 0.772575
-0.171875 0.222222 0.335858 89 89 89 0.772575
-0.100000 0.222222 0.258871 81 81 81 0.772575
-0.375000 0.225000 -0.170594 10 10 10 0.772575
-0.303125 0.225000 0.447401 83 83 83 0.772575
-0.231250 0.225000 0.394614 89 89 89 0.772575
-0.159375 0.225000 0.326002 89 89 89 0.772575
-0.087500 0.225000 0.218644 64 64 64 0.772575
-0.362500 0.227778 0.001698 10 10 10 0.772575
-0.290625 0.227778 0.450846 89 89 89 0.772575
-0.218750 0.227778 0.350591 13 13 13 0.772575
-0.146875 0.227778 0.316150 89 89 89 0.772575
-0.350000 0.230556 0.035305 21 21 21 0.772575
-0.278125 0.230556 0.443514 89 89 89 0.772575
-0.206250 0.230556 0.278234 24 24 24 0.772575
-0.134375 0.230556 0.306287 89 89 89 0.772575
-0.337500 0.233333 0.335881 22 22 22 0.772575
-0.265625 0.233333 0.433655 89 89 89 0.772575
-0.193750 0.233333 0.280592 22 22 22 0.772575
-0.121875 0.233333 0.296432 89 89 89 0.772575
-0.325000 0.236111 0.404434 53 53 53 0.772575
-0.253125 0.236111 0.423799 89 89 89 0.772575
-0.181250 0.236111 0.331373 12 12 12 0.772575
-0.109375 0.236111 0.286572 89 89 89 0.772575
-0.384375 0.238889 -0.334922 10 10 10 0.772575
-0.312500 0.238889 0.438969 72 72 72 0.772575
-0.240625 0.238889 0.413943 89 89 89 0.772575
-0.168750 0.238889 0.345328 89 89 89 0.772575
-0.096875 0.238889 0.268483 81 81 81 0.772575
-0.371875 0.241667 -0.162608 10 10 10 0.772575
-0.300000 0.241667 0.456684 83 83 83 0.772575
-0.228125 0.241667 0.404085 89 89 89 0.772575
-0.156250 0.241667 0.314743 16 16 16 0.772575
-0.084375 0.241667 0.228533 64 64 64 0.772575
-0.359375 0.244444 0.009674 10 10 10 0.772575
-0.287500 0.244444 0.460262 89 89 89 0.772575
-0.215625 0.244444 0.387522 64 64 64 0.772575
-0.143750 0.244444 0.284026 18 18 18 0.772575
-0.346875 0.247222 0.038633 20 20 20 0.772575
-0.275000 0.247222 0.452985 89 89 89 0.772575
-0.203125 0.247222 0.317504 18 18 18 0.772575
-0.131250 0.247222 0.304657 67 67 67 0.772575
-0.334375 0.250000 0.344173 22 22 22 0.772575
-0.262500 0.250000 0.443127 89 89 89 0.772575
-0.190625 0.250000 0.322496 14 14 14 0.772575
-0.118750 0.250000 0.305902 89 89 89 0.772575
-0.321875 0.252778 0.413476 53 53 53 0.772575
-0.250000 0.252778 0.433267 89 89 89 0.772575
-0.178125 0.252778 0.364653 89 89 89 0.772575
-0.106250 0.252778 0.296043 89 89 89 0.772575
-0.381250 0.255556 -0.326941 10 10 10 0.772575
-0.309375 0.255556 0.448087 72 72 72 0.772575
-0.237500 0.255556 0.423414 89 89 89 0.772575
-0.165625 0.255556 0.344962 38 38 38 0.772575
-0.093750 0.255556 0.278095 81 81 81 0.772575
-0.368750 0.258333 -0.304719 17 17 17 0.772575
-0.296875 0.258333 0.465968 83 83 83 0.772575
-0.225000 0.258333 0.413555 89 89 89 0.772575
-0.153125 0.258333 0.269778 24 24 24 0.772575
-0.081250 0.258333 0.238422 64 64 64 0.772575
-0.356250 0.261111 0.017648 10 10 10 0.772575
-0.284375 0.261111 0.469677 89 89 89 0.772575
-0.212500 0.261111 0.403694 89 89 89 0.772575
-0.140625 0.261111 0.260085 23 23 23 0.772575
-0.343750 0.263889 0.187375 10 10 10 0.772575
-0.271875 0.263889 0.462455 89 89 89 0.772575
-0.200000 0.263889 0.393843 89 89 89 0.772575
-0.128125 0.263889 0.297718 16 16 16 0.772575
-0.331250 0.266667 0.352466 22 22 22 0.772575
-0.259375 0.266667 0.452599 89 89 89 0.772575
-0.187500 0.266667 0.383986 89 89 89 0.772575
-0.115625 0.266667 0.315372 89 89 89 0.772575
-0.318750 0.269444 0.422519 53 53 53 0.772575
-0.246875 0.269444 0.442735 89 89 89 0.772575
-0.175000 0.269444 0.374126 89 89 89 0.772575
-0.103125 0.269444 0.305513 89 89 89 0.772575
-0.378125 0.272222 -0.322337 46 46 46 0.772575
-0.306250 0.272222 0.457205 72 72 72 0.772575
-0.234375 0.272222 0.430742 81 81 81 0.772575
-0.162500 0.272222 0.312684 17 17 17 0.772575
-0.090625 0.272222 0.287707 82 82 82 0.772575
-0.365625 0.275000 -0.312452 20 20 20 0.772575
-0.293750 0.275000 0.475251 83 83 83 0.772575
-0.221875 0.275000 0.411484 76 76 76 0.772575
-0.150000 0.275000 0.258330 25 25 25 0.772575
-0.078125 0.275000 0.248311 65 65 65 0.772575
-0.353125 0.277778 0.025643 10 10 10 0.772575
-0.281250 0.277778 0.479092 89 89 89 0.772575
-0.209375 0.277778 0.413164 89 89 89 0.772575
-0.137500 0.277778 0.266839 24 24 24 0.772575
-0.340625 0.280556 0.197442 10 10 10 0.772575
-0.268750 0.280556 0.471926 90 90 90 0.772575
-0.196875 0.280556 0.403315 89 89 89 0.772575
-0.125000 0.280556 0.323883 35 35 35 0.772575
-0.328125 0.283333 0.360759 22 22 22 0.772575
-0.256250 0.283333 0.462071 90 90 90 0.772575
-0.184375 0.283333 0.393456 89 89 89 0.772575
-0.112500 0.283333 0.324843 89 89 89 0.772575
-0.315625 0.286111 0.431562 53 53 53 0.772575
-0.243750 0.286111 0.445549 68 68 68 0.772575
-0.171875 0.286111 0.383599 89 89 89 0.772575
-0.100000 0.286111 0.314984 89 89 89 0.772575
-0.375000 0.288889 -0.324399 56 56 56 0.772575
-0.303125 0.288889 0.466322 72 72 72 0.772575
-0.231250 0.288889 0.384378 20 20 20 0.772575
-0.159375 0.288889 0.308866 18 18 18 0.772575
-0.087500 0.288889 0.297319 82 82 82 0.772575
-0.362500 0.291667 -0.305163 19 19 19 0.772575
-0.290625 0.291667 0.484535 83 83 83 0.772575
-0.218750 0.291667 0.378114 19 19 19 0.772575
-0.146875 0.291667 0.271829 23 23 23 0.772575
-0.075000 0.291667 0.258200 65 65 65 0.772575
-0.350000 0.294444 0.033634 10 10 10 0.772575
-0.278125 0.294444 0.488508 89 89 89 0.772575
-0.206250 0.294444 0.414132 75 75 75 0.772575
-0.134375 0.294444 0.293946 17 17 17 0.772575
-0.337500 0.297222 0.099406 16 16 16 0.772575
-0.265625 0.297222 0.481396 90 90 90 0.772575
-0.193750 0.297222 0.412785 90 90 90 0.772575
-0.121875 0.297222 0.344172 89 89 89 0.772575
-0.325000 0.300000 0.369052 22 22 22 0.772575
-0.253125 0.300000 0.471543 90 90 90 0.772575
-0.181250 0.300000 0.402927 89 89 89 0.772575
-0.109375 0.300000 0.334313 89 89 89 0.772575
-0.312500 0.302778 0.440562 53 53 53 0.772575
-0.240625 0.302778 0.412563 19 19 19 0.772575
-0.168750 0.302778 0.393073 89 89 89 0.772575
-0.096875 0.302778 0.324455 89 89 89 0.772575
-0.371875 0.305556 -0.309412 41 41 41 0.772575
-0.300000 0.305556 0.475440 72 72 72 0.772575
-0.228125 0.305556 0.370433 25 25 25 0.772575
-0.156250 0.305556 0.382789 83 83 83 0.772575
-0.084375 0.305556 0.306931 82 82 82 0.772575
-0.359375 0.308333 -0.130698 10 10 10 0.772575
-0.287500 0.308333 0.493818 83 83 83 0.772575
-0.215625 0.308333 0.373171 21 21 21 0.772575
-0.143750 0.308333 0.354685 11 11 11 0.772575
-0.071875 0.308333 0.268089 65 65 65 0.772575
-0.346875 0.311111 0.041620 10 10 10 0.772575
-0.275000 0.311111 0.497923 89 89 89 0.772575
-0.203125 0.311111 0.426233 73 73 73 0.772575
-0.131250 0.311111 0.363496 89 89 89 0.772575
-0.334375 0.313889 0.083423 20 20 20 0.772575
-0.262500 0.313889 0.490867 90 90 90 0.772575
-0.190625 0.313889 0.422254 90 90 90 0.772575
-0.118750 0.313889 0.353638 89 89 89 0.772575
-0.321875 0.316667 0.377345 22 22 22 0.772575
-0.250000 0.316667 0.481011 90 90 90 0.772575
-0.178125 0.316667 0.412398 90 90 90 0.772575
-0.106250 0.316667 0.343781 89 89 89 0.772575
-0.309375 0.319444 0.449482 53 53 53 0.772575
-0.237500 0.319444 0.391808 22 22 22 0.772575
-0.165625 0.319444 0.402542 90 90 90 0.772575
-0.093750 0.319444 0.333925 89 89 89 0.772575
-0.368750 0.322222 -0.295035 10 10 10 0.772575
-0.296875 0.322222 0.484558 72 72 72 0.772575
-0.225000 0.322222 0.365618 25 25 25 0.772575
-0.153125 0.322222 0.392683 89 89 89 0.772575
-0.081250 0.322222 0.315223 82 82 82 0.772575
-0.356250 0.325000 -0.122698 10 10 10 0.772575
-0.284375 0.325000 0.503101 83 83 83 0.772575
-0.212500 0.325000 0.393996 17 17 17 0.772575
-0.140625 0.325000 0.382824 89 89 89 0.772575
-0.068750 0.325000 0.272008 61 61 61 0.772575
-0.343750 0.327778 0.049596 10 10 10 0.772575
-0.271875 0.327778 0.507339 89 89 89 0.772575
-0.200000 0.327778 0.441581 90 90 90 0.772575
-0.128125 0.327778 0.372967 89 89 89 0.772575
-0.331250 0.330556 0.082431 21 21 21 0.772575
-0.259375 0.330556 0.500337 90 90 90 0.772575
-0.187500 0.330556 0.431724 90 90 90 0.772575
-0.115625 0.330556 0.363110 89 89 89 0.772575
-0.318750 0.333333 0.385638 21 21 21 0.772575
-0.246875 0.333333 0.490476 90 90 90 0.772575
-0.175000 0.333333 0.421867 90 90 90 0.772575
-0.103125 0.333333 0.352043 89 89 89 0.772575
-0.306250 0.336111 0.458401 52 52 52 0.772575
-0.234375 0.336111 0.409083 19 19 19 0.772575
-0.162500 0.336111 0.412011 90 90 90 0.772575
-0.090625 0.336111 0.339964 89 89 89 0.772575
-0.365625 0.338889 -0.287063 10 10 10 0.772575
-0.293750 0.338889 0.493676 72 72 72 0.772575
-0.221875 0.338889 0.406158 17 17 17 0.772575
-0.150000 0.338889 0.402151 90 90 90 0.772575
-0.078125 0.338889 0.315565 78 78 78 0.772575
-0.353125 0.341667 -0.252440 16 16 16 0.772575
-0.281250 0.341667 0.512385 83 83 83 0.772575
-0.209375 0.341667 0.457832 66 66 66 0.772575
-0.137500 0.341667 0.392294 89 89 89 0.772575
-0.065625 0.341667 0.252532 53 53 53 0.772575
-0.340625 0.344444 0.057572 10 10 10 0.772575
-0.268750 0.344444 0.516764 89 89 89 0.772575
-0.196875 0.344444 0.451052 90 90 90 0.772575
-0.125000 0.344444 0.381125 90 90 90 0.772575
-0.328125 0.347222 0.112198 15 15 15 0.772575
-0.256250 0.347222 0.509808 90 90 90 0.772575
-0.184375 0.347222 0.441194 90 90 90 0.772575
-0.112500 0.347222 0.368881 89 89 89 0.772575
-0.315625 0.350000 0.393958 21 21 21 0.772575
-0.243750 0.350000 0.499949 90 90 90 0.772575
-0.171875 0.350000 0.431337 90 90 90 0.772575
-0.100000 0.350000 0.353233 87 87 87 0.772575
-0.303125 0.352778 0.467321 52 52 52 0.772575
-0.231250 0.352778 0.490089 90 90 90 0.772575
-0.159375 0.352778 0.421479 90 90 90 0.772575
-0.087500 0.352778 0.335418 85 85 85 0.772575
-0.362500 0.355556 -0.279333 20 20 20 0.772575
-0.290625 0.355556 0.502793 72 72 72 0.772575
-0.218750 0.355556 0.480235 90 90 90 0.772575
-0.146875 0.355556 0.410182 90 90 90 0.772575
-0.075000 0.355556 0.297352 68 68 68 0.772575
-0.350000 0.358333 -0.264900 20 20 20 0.772575
-0.278125 0.358333 0.521668 83 83 83 0.772575
-0.206250 0.358333 0.470378 90 90 90 0.772575
-0.134375 0.358333 0.397797 89 89 89 0.772575
-0.062500 0.358333 0.221070 43 43 43 0.772575
-0.337500 0.361111 0.065549 10 10 10 0.772575
