ply
format ascii 1.0
comment Point Cloud Data Format in OpenHolo Library v1.0
element color 1
property int channel
element vertex 990
property float x
property float y
property float z
property uchar red
property uchar green
property uchar blue
property double phase
end_header
1
0.065625 -0.363889 0.432389 185 185 185 1.220319
0.137500 -0.363889 0.633448 191 191 191 1.220319
0.209375 -0.363889 0.834509 197 197 197 1.220319
0.281250 -0.363889 0.722220 98 98 98 1.220319
0.078125 -0.361111 0.469437 189 189 189 1.220319
0.150000 -0.361111 0.670500 196 196 196 1.220319
0.221875 -0.361111 0.862068 207 207 207 1.220319
0.293750 -0.361111 0.632398 86 86 86 1.220319
0.090625 -0.358333 0.474104 11 11 11 1.220319
0.162500 -0.358333 0.665765 22 22 22 1.220319
0.234375 -0.358333 0.873249 206 206 206 1.220319
0.306250 -0.358333 0.532586 50 50 50 1.220319
0.103125 -0.355556 0.464989 12 12 12 1.220319
0.175000 -0.355556 0.679083 20 20 20 1.220319
0.246875 -0.355556 0.861742 187 187 187 1.220319
0.318750 -0.355556 0.424282 25 25 25 1.220319
0.043750 -0.352778 0.371325 145 145 145 1.220319
0.115625 -0.352778 0.580586 154 154 154 1.220319
0.187500 -0.352778 0.781641 192 192 192 1.220319
0.259375 -0.352778 0.840047 153 153 153 1.220319
0.331250 -0.352778 0.299288 25 25 25 1.220319
0.056250 -0.350000 0.416575 185 185 185 1.220319
0.128125 -0.350000 0.617630 187 187 187 1.220319
0.200000 -0.350000 0.818691 193 193 193 1.220319
0.271875 -0.350000 0.792054 112 112 112 1.220319
0.343750 -0.350000 0.110272 25 25 25 1.220319
0.068750 -0.347222 0.453619 187 187 187 1.220319
0.140625 -0.347222 0.654681 192 192 192 1.220319
0.212500 -0.347222 0.852718 206 206 206 1.220319
0.284375 -0.347222 0.711563 100 100 100 1.220319
0.081250 -0.344444 0.490672 184 184 184 1.220319
0.153125 -0.344444 0.656908 22 22 22 1.220319
0.225000 -0.344444 0.870220 209 209 209 1.220319
0.296875 -0.344444 0.621872 92 92 92 1.220319
0.093750 -0.341667 0.527718 171 171 171 1.220319
0.165625 -0.341667 0.642256 25 25 25 1.220319
0.237500 -0.341667 0.872980 203 203 203 1.220319
0.309375 -0.341667 0.532338 83 83 83 1.220319
0.034375 -0.338889 0.337768 103 103 103 1.220319
0.106250 -0.338889 0.564775 175 175 175 1.220319
0.178125 -0.338889 0.663587 22 22 22 1.220319
0.250000 -0.338889 0.860231 188 188 188 1.220319
0.321875 -0.338889 0.440404 62 62 62 1.220319
0.046875 -0.336111 0.399977 172 172 172 1.220319
0.118750 -0.336111 0.601818 174 174 174 1.220319
0.190625 -0.336111 0.802873 189 189 189 1.220319
0.262500 -0.336111 0.827507 145 145 145 1.220319
0.334375 -0.336111 0.339085 28 28 28 1.220319
0.059375 -0.333333 0.437802 197 197 197 1.220319
0.131250 -0.333333 0.638862 192 192 192 1.220319
0.203125 -0.333333 0.839796 200 200 200 1.220319
0.275000 -0.333333 0.762085 114 114 114 1.220319
0.346875 -0.333333 0.229226 25 25 25 1.220319
0.071875 -0.330556 0.474850 189 189 189 1.220319
0.143750 -0.330556 0.674224 206 206 206 1.220319
0.215625 -0.330556 0.864774 211 211 211 1.220319
0.287500 -0.330556 0.685595 106 106 106 1.220319
0.084375 -0.327778 0.511899 179 179 179 1.220319
0.156250 -0.327778 0.651329 21 21 21 1.220319
0.228125 -0.327778 0.873902 210 210 210 1.220319
0.300000 -0.327778 0.604221 94 94 94 1.220319
0.096875 -0.325000 0.548949 174 174 174 1.220319
0.168750 -0.325000 0.643004 23 23 23 1.220319
0.240625 -0.325000 0.867770 196 196 196 1.220319
0.312500 -0.325000 0.521525 85 85 85 1.220319
0.037500 -0.322222 0.380247 156 156 156 1.220319
0.109375 -0.322222 0.586001 182 182 182 1.220319
0.181250 -0.322222 0.692728 15 15 15 1.220319
0.253125 -0.322222 0.845035 171 171 171 1.220319
0.325000 -0.322222 0.431340 77 77 77 1.220319
0.050000 -0.319444 0.421990 184 184 184 1.220319
0.121875 -0.319444 0.623042 192 192 192 1.220319
0.193750 -0.319444 0.824100 195 195 195 1.220319
0.265625 -0.319444 0.796388 117 117 117 1.220319
0.337500 -0.319444 0.344195 65 65 65 1.220319
0.062500 -0.316667 0.459032 200 200 200 1.220319
0.134375 -0.316667 0.660097 203 203 203 1.220319
0.206250 -0.316667 0.856953 211 211 211 1.220319
0.278125 -0.316667 0.723904 112 112 112 1.220319
0.350000 -0.316667 0.248129 37 37 37 1.220319
0.075000 -0.313889 0.496080 189 189 189 1.220319
0.146875 -0.313889 0.692661 187 187 187 1.220319
0.218750 -0.313889 0.871334 214 214 214 1.220319
0.290625 -0.313889 0.650144 103 103 103 1.220319
0.362500 -0.313889 0.116843 25 25 25 1.220319
0.087500 -0.311111 0.533129 189 189 189 1.220319
0.159375 -0.311111 0.664585 16 16 16 1.220319
0.231250 -0.311111 0.872117 205 205 205 1.220319
0.303125 -0.311111 0.574746 96 96 96 1.220319
0.028125 -0.308333 0.351050 120 120 120 1.220319
0.100000 -0.308333 0.570177 186 186 186 1.220319
0.171875 -0.308333 0.672291 17 17 17 1.220319
0.243750 -0.308333 0.856334 188 188 188 1.220319
0.315625 -0.308333 0.496924 88 88 88 1.220319
0.040625 -0.305556 0.406169 180 180 180 1.220319
0.112500 -0.305556 0.607226 187 187 187 1.220319
0.184375 -0.305556 0.808282 191 191 191 1.220319
0.256250 -0.305556 0.821973 141 141 141 1.220319
0.328125 -0.305556 0.415692 78 78 78 1.220319
0.053125 -0.302778 0.443216 200 200 200 1.220319
0.125000 -0.302778 0.644277 199 199 199 1.220319
0.196875 -0.302778 0.844157 206 206 206 1.220319
0.268750 -0.302778 0.754908 106 106 106 1.220319
0.340625 -0.302778 0.330992 70 70 70 1.220319
0.065625 -0.300000 0.480263 201 201 201 1.220319
0.137500 -0.300000 0.681326 210 210 210 1.220319
0.209375 -0.300000 0.867413 215 215 215 1.220319
0.281250 -0.300000 0.682295 114 114 114 1.220319
0.353125 -0.300000 0.243202 58 58 58 1.220319
0.078125 -0.297222 0.517314 189 189 189 1.220319
0.150000 -0.297222 0.718369 180 180 180 1.220319
0.221875 -0.297222 0.873834 213 213 213 1.220319
0.293750 -0.297222 0.609682 106 106 106 1.220319
0.365625 -0.297222 0.145823 25 25 25 1.220319
0.018750 -0.294444 0.300673 77 77 77 1.220319
0.090625 -0.294444 0.554361 190 190 190 1.220319
0.162500 -0.294444 0.746455 142 142 142 1.220319
0.234375 -0.294444 0.865469 199 199 199 1.220319
0.306250 -0.294444 0.537071 99 99 99 1.220319
0.031250 -0.291667 0.387495 164 164 164 1.220319
0.103125 -0.291667 0.591408 191 191 191 1.220319
0.175000 -0.291667 0.792461 192 192 192 1.220319
0.246875 -0.291667 0.839557 166 166 166 1.220319
0.318750 -0.291667 0.462761 89 89 89 1.220319
0.043750 -0.288889 0.427405 184 184 184 1.220319
0.115625 -0.288889 0.628456 195 195 195 1.220319
0.187500 -0.288889 0.829510 197 197 197 1.220319
0.259375 -0.288889 0.785912 108 108 108 1.220319
0.331250 -0.288889 0.387408 78 78 78 1.220319
0.056250 -0.286111 0.464446 205 205 205 1.220319
0.128125 -0.286111 0.665505 207 207 207 1.220319
0.200000 -0.286111 0.859659 214 214 214 1.220319
0.271875 -0.286111 0.713309 101 101 101 1.220319
0.343750 -0.286111 0.308301 69 69 69 1.220319
0.068750 -0.283333 0.501491 195 195 195 1.220319
0.140625 -0.283333 0.702547 205 205 205 1.220319
0.212500 -0.283333 0.872449 218 218 218 1.220319
0.284375 -0.283333 0.640692 117 117 117 1.220319
0.356250 -0.283333 0.227212 61 61 61 1.220319
0.081250 -0.280556 0.538547 190 190 190 1.220319
0.153125 -0.280556 0.739599 185 185 185 1.220319
0.225000 -0.280556 0.870981 207 207 207 1.220319
0.296875 -0.280556 0.568072 106 106 106 1.220319
0.021875 -0.277778 0.362537 137 137 137 1.220319
0.093750 -0.277778 0.575594 191 191 191 1.220319
0.165625 -0.277778 0.776644 176 176 176 1.220319
0.237500 -0.277778 0.852438 186 186 186 1.220319
0.309375 -0.277778 0.495461 99 99 99 1.220319
0.034375 -0.275000 0.411584 180 180 180 1.220319
0.106250 -0.275000 0.612637 186 186 186 1.220319
0.178125 -0.275000 0.813691 198 198 198 1.220319
0.250000 -0.275000 0.813206 136 136 136 1.220319
0.321875 -0.275000 0.422850 92 92 92 1.220319
0.046875 -0.272222 0.448640 188 188 188 1.220319
0.118750 -0.272222 0.649684 202 202 202 1.220319
0.190625 -0.272222 0.848554 211 211 211 1.220319
0.262500 -0.272222 0.744303 76 76 76 1.220319
0.334375 -0.272222 0.350239 85 85 85 1.220319
0.059375 -0.269444 0.472187 218 218 218 1.220319
0.131250 -0.269444 0.686734 213 213 213 1.220319
0.203125 -0.269444 0.869294 220 220 220 1.220319
0.275000 -0.269444 0.584554 20 20 20 1.220319
0.346875 -0.269444 0.275378 74 74 74 1.220319
0.071875 -0.266667 0.512843 149 149 149 1.220319
0.143750 -0.266667 0.723780 203 203 203 1.220319
0.215625 -0.266667 0.873474 215 215 215 1.220319
0.287500 -0.266667 0.594610 142 142 142 1.220319
0.359375 -0.266667 0.200058 61 61 61 1.220319
0.012500 -0.263889 0.322167 94 94 94 1.220319
0.084375 -0.263889 0.559775 191 191 191 1.220319
0.156250 -0.263889 0.760829 191 191 191 1.220319
0.228125 -0.263889 0.862967 201 201 201 1.220319
0.300000 -0.263889 0.526463 102 102 102 1.220319
0.025000 -0.261111 0.393997 168 168 168 1.220319
0.096875 -0.261111 0.596822 179 179 179 1.220319
0.168750 -0.261111 0.797873 187 187 187 1.220319
0.240625 -0.261111 0.833578 160 160 160 1.220319
0.312500 -0.261111 0.453850 103 103 103 1.220319
0.037500 -0.258333 0.432820 183 183 183 1.220319
0.109375 -0.258333 0.633868 203 203 203 1.220319
0.181250 -0.258333 0.834919 198 198 198 1.220319
0.253125 -0.258333 0.775307 99 99 99 1.220319
0.325000 -0.258333 0.381239 95 95 95 1.220319
0.050000 -0.255556 0.454602 224 224 224 1.220319
0.121875 -0.255556 0.670913 208 208 208 1.220319
0.193750 -0.255556 0.862365 218 218 218 1.220319
0.265625 -0.255556 0.569871 21 21 21 1.220319
0.337500 -0.255556 0.308628 88 88 88 1.220319
0.062500 -0.252778 0.435705 23 23 23 1.220319
0.134375 -0.252778 0.707959 210 210 210 1.220319
0.206250 -0.252778 0.873434 221 221 221 1.220319
0.278125 -0.252778 0.562604 25 25 25 1.220319
0.350000 -0.252778 0.236017 80 80 80 1.220319
0.075000 -0.250000 0.467375 17 17 17 1.220319
0.146875 -0.250000 0.745013 199 199 199 1.220319
0.218750 -0.250000 0.869312 208 208 208 1.220319
0.290625 -0.250000 0.557480 125 125 125 1.220319
0.362500 -0.250000 0.126161 25 25 25 1.220319
0.015625 -0.247222 0.371625 148 148 148 1.220319
0.087500 -0.247222 0.581003 171 171 171 1.220319
0.159375 -0.247222 0.782057 198 198 198 1.220319
0.231250 -0.247222 0.848592 183 183 183 1.220319
0.303125 -0.247222 0.484859 83 83 83 1.220319
0.028125 -0.244444 0.416999 179 179 179 1.220319
0.100000 -0.244444 0.618048 199 199 199 1.220319
0.171875 -0.244444 0.819102 197 197 197 1.220319
0.243750 -0.244444 0.804385 130 130 130 1.220319
0.315625 -0.244444 0.412249 93 93 93 1.220319
0.040625 -0.241667 0.452802 213 213 213 1.220319
0.112500 -0.241667 0.655099 208 208 208 1.220319
0.184375 -0.241667 0.852950 215 215 215 1.220319
0.256250 -0.241667 0.733696 64 64 64 1.220319
0.328125 -0.241667 0.338618 107 107 107 1.220319
0.053125 -0.238889 0.430483 24 24 24 1.220319
0.125000 -0.238889 0.692142 212 212 212 1.220319
0.196875 -0.238889 0.870409 223 223 223 1.220319
0.268750 -0.238889 0.554943 23 23 23 1.220319
0.340625 -0.238889 0.267019 119 119 119 1.220319
0.065625 -0.236111 0.426778 25 25 25 1.220319
0.137500 -0.236111 0.729193 202 202 202 1.220319
0.209375 -0.236111 0.872871 217 217 217 1.220319
0.281250 -0.236111 0.566829 210 210 210 1.220319
0.353125 -0.236111 0.194407 78 78 78 1.220319
0.006250 -0.233333 0.338363 110 110 110 1.220319
0.078125 -0.233333 0.550999 86 86 86 1.220319
0.150000 -0.233333 0.766236 198 198 198 1.220319
0.221875 -0.233333 0.859847 200 200 200 1.220319
0.293750 -0.233333 0.515862 118 118 118 1.220319
0.018750 -0.230556 0.400480 171 171 171 1.220319
0.090625 -0.230556 0.602228 195 195 195 1.220319
0.162500 -0.230556 0.803282 199 199 199 1.220319
0.234375 -0.230556 0.827598 154 154 154 1.220319
0.306250 -0.230556 0.443256 64 64 64 1.220319
0.031250 -0.227778 0.438221 201 201 201 1.220319
0.103125 -0.227778 0.639280 210 210 210 1.220319
0.175000 -0.227778 0.840131 205 205 205 1.220319
0.246875 -0.227778 0.764707 107 107 107 1.220319
0.318750 -0.227778 0.273635 20 20 20 1.220319
0.043750 -0.225000 0.459485 185 185 185 1.220319
0.115625 -0.225000 0.676331 208 208 208 1.220319
0.187500 -0.225000 0.864975 222 222 222 1.220319
0.259375 -0.225000 0.586756 11 11 11 1.220319
0.331250 -0.225000 0.287969 134 134 134 1.220319
0.056250 -0.222222 0.430520 22 22 22 1.220319
0.128125 -0.222222 0.711828 208 208 208 1.220319
0.200000 -0.222222 0.873929 223 223 223 1.220319
0.271875 -0.222222 0.565726 20 20 20 1.220319
0.343750 -0.222222 0.225415 111 111 111 1.220319
0.068750 -0.219444 0.440511 19 19 19 1.220319
0.140625 -0.219444 0.750426 195 195 195 1.220319
0.212500 -0.219444 0.867268 210 210 210 1.220319
0.284375 -0.219444 0.546857 129 129 129 1.220319
0.356250 -0.219444 0.136634 41 41 41 1.220319
0.009375 -0.216667 0.380713 159 159 159 1.220319
0.081250 -0.216667 0.586408 183 183 183 1.220319
0.153125 -0.216667 0.787461 199 199 199 1.220319
0.225000 -0.216667 0.844880 178 178 178 1.220319
0.296875 -0.216667 0.474250 85 85 85 1.220319
0.021875 -0.213889 0.422407 188 188 188 1.220319
0.093750 -0.213889 0.623460 206 206 206 1.220319
0.165625 -0.213889 0.824511 192 192 192 1.220319
0.237500 -0.213889 0.795707 114 114 114 1.220319
0.309375 -0.213889 0.264873 19 19 19 1.220319
0.034375 -0.211111 0.459453 195 195 195 1.220319
0.106250 -0.211111 0.660512 218 218 218 1.220319
0.178125 -0.211111 0.857250 218 218 218 1.220319
0.250000 -0.211111 0.723104 98 98 98 1.220319
0.321875 -0.211111 0.256562 25 25 25 1.220319
0.046875 -0.208333 0.485959 117 117 117 1.220319
0.118750 -0.208333 0.672473 21 21 21 1.220319
0.190625 -0.208333 0.871509 225 225 225 1.220319
0.262500 -0.208333 0.624341 4 4 4 1.220319
0.334375 -0.208333 0.256424 141 141 141 1.220319
0.059375 -0.205556 0.462815 14 14 14 1.220319
0.131250 -0.205556 0.675967 20 20 20 1.220319
0.203125 -0.205556 0.872051 217 217 217 1.220319
0.275000 -0.205556 0.577876 128 128 128 1.220319
0.346875 -0.205556 0.181989 76 76 76 1.220319
0.000000 -0.202778 0.320094 97 97 97 1.220319
0.071875 -0.202778 0.570595 170 170 170 1.220319
0.143750 -0.202778 0.771641 198 198 198 1.220319
0.215625 -0.202778 0.855950 196 196 196 1.220319
0.287500 -0.202778 0.505247 111 111 111 1.220319
0.012500 -0.200000 0.404942 169 169 169 1.220319
0.084375 -0.200000 0.607639 203 203 203 1.220319
0.156250 -0.200000 0.808696 181 181 181 1.220319
0.228125 -0.200000 0.821208 148 148 148 1.220319
0.300000 -0.200000 0.432652 69 69 69 1.220319
0.025000 -0.197222 0.443641 180 180 180 1.220319
0.096875 -0.197222 0.644692 215 215 215 1.220319
0.168750 -0.197222 0.844490 210 210 210 1.220319
0.240625 -0.197222 0.754099 112 112 112 1.220319
0.312500 -0.197222 0.252172 22 22 22 1.220319
0.037500 -0.194444 0.480687 190 190 190 1.220319
0.109375 -0.194444 0.666651 228 228 228 1.220319
0.181250 -0.194444 0.867504 225 225 225 1.220319
0.253125 -0.194444 0.681501 95 95 95 1.220319
0.325000 -0.194444 0.255822 25 25 25 1.220319
0.050000 -0.191667 0.517731 187 187 187 1.220319
0.121875 -0.191667 0.645607 24 24 24 1.220319
0.193750 -0.191667 0.873695 224 224 224 1.220319
0.265625 -0.191667 0.608885 95 95 95 1.220319
0.337500 -0.191667 0.214798 91 91 91 1.220319
0.062500 -0.188889 0.554773 173 173 173 1.220319
0.134375 -0.188889 0.655901 23 23 23 1.220319
0.206250 -0.188889 0.865127 209 209 209 1.220319
0.278125 -0.188889 0.519314 25 25 25 1.220319
0.350000 -0.188889 0.095636 25 25 25 1.220319
0.003125 -0.186111 0.352003 124 124 124 1.220319
0.075000 -0.186111 0.591818 193 193 193 1.220319
0.146875 -0.186111 0.792878 176 176 176 1.220319
0.218750 -0.186111 0.839017 172 172 172 1.220319
0.290625 -0.186111 0.461985 128 128 128 1.220319
0.015625 -0.183333 0.419918 165 165 165 1.220319
0.087500 -0.183333 0.628867 205 205 205 1.220319
0.159375 -0.183333 0.829925 198 198 198 1.220319
0.231250 -0.183333 0.785098 114 114 114 1.220319
0.303125 -0.183333 0.295812 7 7 7 1.220319
0.028125 -0.180556 0.461670 173 173 173 1.220319
0.100000 -0.180556 0.665916 212 212 212 1.220319
0.171875 -0.180556 0.859956 221 221 221 1.220319
0.243750 -0.180556 0.712497 111 111 111 1.220319
0.315625 -0.180556 0.266417 18 18 18 1.220319
0.040625 -0.177778 0.500659 183 183 183 1.220319
0.112500 -0.177778 0.656985 21 21 21 1.220319
0.184375 -0.177778 0.872476 227 227 227 1.220319
0.256250 -0.177778 0.639885 89 89 89 1.220319
0.328125 -0.177778 0.245809 123 123 123 1.220319
0.053125 -0.175000 0.538967 191 191 191 1.220319
0.125000 -0.175000 0.642322 24 24 24 1.220319
0.196875 -0.175000 0.870853 217 217 217 1.220319
0.268750 -0.175000 0.429432 17 17 17 1.220319
0.340625 -0.175000 0.166119 69 69 69 1.220319
0.065625 -0.172222 0.576009 193 193 193 1.220319
0.137500 -0.172222 0.671224 18 18 18 1.220319
0.209375 -0.172222 0.852150 192 192 192 1.220319
0.281250 -0.172222 0.418274 23 23 23 1.220319
0.006250 -0.169444 0.375878 145 145 145 1.220319
0.078125 -0.169444 0.613051 194 194 194 1.220319
0.150000 -0.169444 0.814106 189 189 189 1.220319
0.221875 -0.169444 0.812386 141 141 141 1.220319
0.293750 -0.169444 0.422032 130 130 130 1.220319
0.018750 -0.166667 0.428087 161 161 161 1.220319
0.090625 -0.166667 0.650099 195 195 195 1.220319
0.162500 -0.166667 0.848848 215 215 215 1.220319
0.234375 -0.166667 0.743485 112 112 112 1.220319
0.306250 -0.166667 0.341033 74 74 74 1.220319
0.031250 -0.163889 0.473358 172 172 172 1.220319
0.103125 -0.163889 0.686143 200 200 200 1.220319
0.175000 -0.163889 0.869484 227 227 227 1.220319
0.246875 -0.163889 0.670896 111 111 111 1.220319
0.318750 -0.163889 0.276815 118 118 118 1.220319
0.043750 -0.161111 0.516475 180 180 180 1.220319
0.115625 -0.161111 0.662671 18 18 18 1.220319
0.187500 -0.161111 0.873092 224 224 224 1.220319
0.259375 -0.161111 0.598272 63 63 63 1.220319
0.331250 -0.161111 0.204188 91 91 91 1.220319
0.056250 -0.158333 0.557388 186 186 186 1.220319
0.128125 -0.158333 0.660183 19 19 19 1.220319
0.200000 -0.158333 0.862808 207 207 207 1.220319
0.271875 -0.158333 0.404244 22 22 22 1.220319
0.068750 -0.155556 0.596377 192 192 192 1.220319
0.140625 -0.155556 0.798288 180 180 180 1.220319
0.212500 -0.155556 0.833148 165 165 165 1.220319
0.284375 -0.155556 0.410119 25 25 25 1.220319
0.009375 -0.152778 0.374471 135 135 135 1.220319
0.081250 -0.152778 0.634286 195 195 195 1.220319
0.153125 -0.152778 0.835339 203 203 203 1.220319
0.225000 -0.152778 0.774490 115 115 115 1.220319
0.296875 -0.152778 0.380421 114 114 114 1.220319
0.021875 -0.150000 0.428344 153 153 153 1.220319
0.093750 -0.150000 0.671329 196 196 196 1.220319
0.165625 -0.150000 0.862537 224 224 224 1.220319
0.237500 -0.150000 0.701882 91 91 91 1.220319
0.309375 -0.150000 0.307803 91 91 91 1.220319
0.034375 -0.147222 0.477643 166 166 166 1.220319
0.106250 -0.147222 0.708381 197 197 197 1.220319
0.178125 -0.147222 0.873444 228 228 228 1.220319
0.250000 -0.147222 0.629275 98 98 98 1.220319
0.321875 -0.147222 0.235204 117 117 117 1.220319
0.046875 -0.144444 0.525635 177 177 177 1.220319
0.118750 -0.144444 0.718245 6 6 6 1.220319
0.190625 -0.144444 0.868898 216 216 216 1.220319
0.262500 -0.144444 0.428850 14 14 14 1.220319
0.334375 -0.144444 0.154498 61 61 61 1.220319
0.059375 -0.141667 0.569915 187 187 187 1.220319
0.131250 -0.141667 0.782476 185 185 185 1.220319
0.203125 -0.141667 0.848438 187 187 187 1.220319
0.275000 -0.141667 0.403400 23 23 23 1.220319
0.071875 -0.138889 0.613033 191 191 191 1.220319
0.143750 -0.138889 0.819520 194 194 194 1.220319
0.215625 -0.138889 0.803723 132 132 132 1.220319
0.287500 -0.138889 0.407773 155 155 155 1.220319
0.012500 -0.136111 0.352286 99 99 99 1.220319
0.084375 -0.136111 0.653105 198 198 198 1.220319
0.156250 -0.136111 0.853207 218 218 218 1.220319
0.228125 -0.136111 0.732872 112 112 112 1.220319
0.300000 -0.136111 0.338814 100 100 100 1.220319
0.025000 -0.133333 0.416045 130 130 130 1.220319
0.096875 -0.133333 0.692097 198 198 198 1.220319
0.168750 -0.133333 0.870551 229 229 229 1.220319
0.240625 -0.133333 0.597122 17 17 17 1.220319
0.312500 -0.133333 0.266193 94 94 94 1.220319
0.037500 -0.130556 0.473660 150 150 150 1.220319
0.109375 -0.130556 0.729606 196 196 196 1.220319
0.181250 -0.130556 0.872489 223 223 223 1.220319
0.253125 -0.130556 0.587662 128 128 128 1.220319
0.325000 -0.130556 0.193578 92 92 92 1.220319
0.050000 -0.127778 0.526804 169 169 169 1.220319
0.121875 -0.127778 0.766653 195 195 195 1.220319
0.193750 -0.127778 0.859463 202 202 202 1.220319
0.265625 -0.127778 0.443858 10 10 10 1.220319
0.062500 -0.125000 0.575192 180 180 180 1.220319
0.134375 -0.125000 0.803707 196 196 196 1.220319
0.206250 -0.125000 0.827245 158 158 158 1.220319
0.278125 -0.125000 0.428570 160 160 160 1.220319
0.075000 -0.122222 0.623184 191 191 191 1.220319
0.146875 -0.122222 0.840467 208 208 208 1.220319
0.218750 -0.122222 0.763882 116 116 116 1.220319
0.290625 -0.122222 0.369820 113 113 113 1.220319
0.087500 -0.119444 0.666472 199 199 199 1.220319
0.159375 -0.119444 0.865066 227 227 227 1.220319
0.231250 -0.119444 0.566770 22 22 22 1.220319
0.303125 -0.119444 0.297202 102 102 102 1.220319
0.028125 -0.116667 0.378809 90 90 90 1.220319
0.100000 -0.116667 0.709590 201 201 201 1.220319
0.171875 -0.116667 0.873917 228 228 228 1.220319
0.243750 -0.116667 0.565091 24 24 24 1.220319
0.315625 -0.116667 0.224582 96 96 96 1.220319
0.040625 -0.113889 0.453482 120 120 120 1.220319
0.112500 -0.113889 0.748824 205 205 205 1.220319
0.184375 -0.113889 0.866757 213 213 213 1.220319
0.256250 -0.113889 0.546050 114 114 114 1.220319
0.328125 -0.113889 0.135108 43 43 43 1.220319
0.053125 -0.111111 0.516135 145 145 145 1.220319
0.125000 -0.111111 0.787816 204 204 204 1.220319
0.196875 -0.111111 0.844311 181 181 181 1.220319
0.268750 -0.111111 0.473430 106 106 106 1.220319
0.065625 -0.108333 0.572801 163 163 163 1.220319
0.137500 -0.108333 0.824938 205 205 205 1.220319
0.209375 -0.108333 0.794895 121 121 121 1.220319
0.281250 -0.108333 0.400820 108 108 108 1.220319
0.078125 -0.105556 0.624748 182 182 182 1.220319
0.150000 -0.105556 0.857548 221 221 221 1.220319
0.221875 -0.105556 0.579696 15 15 15 1.220319
0.293750 -0.105556 0.328209 110 110 110 1.220319
0.090625 -0.102778 0.672740 193 193 193 1.220319
0.162500 -0.102778 0.871518 229 229 229 1.220319
0.234375 -0.102778 0.555824 24 24 24 1.220319
0.306250 -0.102778 0.255581 118 118 118 1.220319
0.103125 -0.100000 0.719911 203 203 203 1.220319
0.175000 -0.100000 0.871886 221 221 221 1.220319
0.246875 -0.100000 0.563135 188 188 188 1.220319
0.318750 -0.100000 0.181977 88 88 88 1.220319
0.043750 -0.097222 0.387566 70 70 70 1.220319
0.115625 -0.097222 0.763029 208 208 208 1.220319
0.187500 -0.097222 0.855707 197 197 197 1.220319
0.259375 -0.097222 0.504443 96 96 96 1.220319
0.056250 -0.094444 0.482431 107 107 107 1.220319
0.128125 -0.094444 0.805551 211 211 211 1.220319
0.200000 -0.094444 0.820388 151 151 151 1.220319
0.271875 -0.094444 0.431823 75 75 75 1.220319
0.068750 -0.091667 0.554684 137 137 137 1.220319
0.140625 -0.091667 0.843310 215 215 215 1.220319
0.212500 -0.091667 0.753283 93 93 93 1.220319
0.284375 -0.091667 0.279032 19 19 19 1.220319
0.081250 -0.088889 0.615964 159 159 159 1.220319
0.153125 -0.088889 0.867595 228 228 228 1.220319
0.225000 -0.088889 0.573712 18 18 18 1.220319
0.296875 -0.088889 0.286376 134 134 134 1.220319
0.093750 -0.086111 0.671261 177 177 177 1.220319
0.165625 -0.086111 0.873314 227 227 227 1.220319
0.237500 -0.086111 0.563884 23 23 23 1.220319
0.309375 -0.086111 0.213984 97 97 97 1.220319
0.106250 -0.083333 0.722297 194 194 194 1.220319
0.178125 -0.083333 0.864615 209 209 209 1.220319
0.250000 -0.083333 0.535447 119 119 119 1.220319
0.321875 -0.083333 0.105516 25 25 25 1.220319
0.118750 -0.080556 0.770289 204 204 204 1.220319
0.190625 -0.080556 0.838442 174 174 174 1.220319
0.262500 -0.080556 0.462827 77 77 77 1.220319
0.131250 -0.077778 0.816468 212 212 212 1.220319
0.203125 -0.077778 0.784287 121 121 121 1.220319
0.275000 -0.077778 0.261719 21 21 21 1.220319
0.071875 -0.075000 0.497825 90 90 90 1.220319
0.143750 -0.075000 0.844232 221 221 221 1.220319
0.215625 -0.075000 0.711667 102 102 102 1.220319
0.287500 -0.075000 0.259048 24 24 24 1.220319
0.084375 -0.072222 0.586039 123 123 123 1.220319
0.156250 -0.072222 0.864200 227 227 227 1.220319
0.228125 -0.072222 0.599607 12 12 12 1.220319
0.300000 -0.072222 0.244986 144 144 144 1.220319
0.096875 -0.069444 0.655826 151 151 151 1.220319
0.168750 -0.069444 0.864766 217 217 217 1.220319
0.240625 -0.069444 0.566441 131 131 131 1.220319
0.312500 -0.069444 0.169020 78 78 78 1.220319
0.109375 -0.066667 0.715158 171 171 171 1.220319
0.181250 -0.066667 0.851995 192 192 192 1.220319
0.253125 -0.066667 0.493826 94 94 94 1.220319
0.121875 -0.063889 0.769722 189 189 189 1.220319
0.193750 -0.063889 0.811719 142 142 142 1.220319
0.265625 -0.063889 0.411643 28 28 28 1.220319
0.134375 -0.061111 0.818590 204 204 204 1.220319
0.206250 -0.061111 0.742678 114 114 114 1.220319
0.278125 -0.061111 0.250638 24 24 24 1.220319
-0.140625 -0.058333 0.071046 88 88 88 1.220319
0.146875 -0.058333 0.842429 215 215 215 1.220319
0.218750 -0.058333 0.670060 109 109 109 1.220319
0.290625 -0.058333 0.260541 196 196 196 1.220319
-0.128125 -0.055556 0.074497 102 102 102 1.220319
0.159375 -0.055556 0.852584 213 213 213 1.220319
0.231250 -0.055556 0.597449 106 106 106 1.220319
0.303125 -0.055556 0.203382 95 95 95 1.220319
-0.115625 -0.052778 0.054933 92 92 92 1.220319
0.100000 -0.052778 0.608074 109 109 109 1.220319
0.171875 -0.052778 0.836591 201 201 201 1.220319
0.243750 -0.052778 0.524838 98 98 98 1.220319
0.112500 -0.050000 0.689641 137 137 137 1.220319
0.184375 -0.050000 0.823691 171 171 171 1.220319
0.256250 -0.050000 0.452227 84 84 84 1.220319
-0.162500 -0.047222 0.102668 93 93 93 1.220319
0.125000 -0.047222 0.755914 163 163 163 1.220319
0.196875 -0.047222 0.772509 125 125 125 1.220319
0.268750 -0.047222 0.280923 13 13 13 1.220319
-0.150000 -0.044444 0.125710 135 135 135 1.220319
0.137500 -0.044444 0.806897 184 184 184 1.220319
0.209375 -0.044444 0.701073 119 119 119 1.220319
0.281250 -0.044444 0.262841 22 22 22 1.220319
-0.137500 -0.041667 0.135271 165 165 165 1.220319
0.150000 -0.041667 0.836477 199 199 199 1.220319
0.221875 -0.041667 0.628459 116 116 116 1.220319
0.293750 -0.041667 0.234394 100 100 100 1.220319
-0.125000 -0.038889 0.132040 159 159 159 1.220319
0.162500 -0.038889 0.824410 193 193 193 1.220319
0.234375 -0.038889 0.555846 113 113 113 1.220319
0.306250 -0.038889 0.155259 65 65 65 1.220319
-0.184375 -0.036111 0.134290 97 97 97 1.220319
-0.112500 -0.036111 0.110656 146 146 146 1.220319
0.175000 -0.036111 0.808417 176 176 176 1.220319
0.246875 -0.036111 0.483232 109 109 109 1.220319
-0.171875 -0.033333 0.156218 137 137 137 1.220319
-0.100000 -0.033333 0.017644 53 53 53 1.220319
0.187500 -0.033333 0.788717 145 145 145 1.220319
0.259375 -0.033333 0.410620 100 100 100 1.220319
-0.159375 -0.030556 0.165124 166 166 166 1.220319
0.128125 -0.030556 0.715443 124 124 124 1.220319
0.200000 -0.030556 0.724651 133 133 133 1.220319
0.271875 -0.030556 0.317377 110 110 110 1.220319
-0.146875 -0.027778 0.168731 184 184 184 1.220319
0.140625 -0.027778 0.769379 149 149 149 1.220319
0.212500 -0.027778 0.656041 120 120 120 1.220319
0.284375 -0.027778 0.265394 132 132 132 1.220319
-0.206250 -0.025000 0.165394 100 100 100 1.220319
-0.134375 -0.025000 0.166520 199 199 199 1.220319
0.153125 -0.025000 0.786054 163 163 163 1.220319
0.225000 -0.025000 0.586201 112 112 112 1.220319
0.296875 -0.025000 0.192781 93 93 93 1.220319
-0.193750 -0.022222 0.186409 139 139 139 1.220319
-0.121875 -0.022222 0.157315 191 191 191 1.220319
0.165625 -0.022222 0.790056 163 163 163 1.220319
0.237500 -0.022222 0.514240 110 110 110 1.220319
-0.181250 -0.019444 0.194977 167 167 167 1.220319
-0.109375 -0.019444 0.135985 171 171 171 1.220319
0.178125 -0.019444 0.778982 151 151 151 1.220319
0.250000 -0.019444 0.441627 107 107 107 1.220319
-0.168750 -0.016667 0.198707 186 186 186 1.220319
-0.096875 -0.016667 0.075735 121 121 121 1.220319
0.190625 -0.016667 0.724847 143 143 143 1.220319
0.262500 -0.016667 0.369013 104 104 104 1.220319
-0.228125 -0.013889 0.196317 103 103 103 1.220319
-0.156250 -0.013889 0.196113 200 200 200 1.220319
0.203125 -0.013889 0.667619 139 139 139 1.220319
0.275000 -0.013889 0.296396 104 104 104 1.220319
-0.215625 -0.011111 0.216599 141 141 141 1.220319
-0.143750 -0.011111 0.191069 209 209 209 1.220319
0.143750 -0.011111 0.694920 62 62 62 1.220319
0.215625 -0.011111 0.603740 128 128 128 1.220319
0.287500 -0.011111 0.223785 124 124 124 1.220319
-0.203125 -0.008333 0.224831 168 168 168 1.220319
-0.131250 -0.008333 0.183375 214 214 214 1.220319
0.156250 -0.008333 0.735631 115 115 115 1.220319
0.228125 -0.008333 0.539574 114 114 114 1.220319
0.300000 -0.008333 0.135127 45 45 45 1.220319
-0.190625 -0.005556 0.228328 187 187 187 1.220319
-0.118750 -0.005556 0.171906 212 212 212 1.220319
0.168750 -0.005556 0.732529 124 124 124 1.220319
0.240625 -0.005556 0.469657 102 102 102 1.220319
-0.250000 -0.002778 0.227239 105 105 105 1.220319
-0.178125 -0.002778 0.225706 201 201 201 1.220319
-0.106250 -0.002778 0.146612 188 188 188 1.220319
0.181250 -0.002778 0.695255 129 129 129 1.220319
0.253125 -0.002778 0.399962 103 103 103 1.220319
-0.237500 0.000000 0.246790 143 143 143 1.220319
-0.165625 0.000000 0.220331 210 210 210 1.220319
-0.093750 0.000000 0.085953 122 122 122 1.220319
0.193750 0.000000 0.650017 128 128 128 1.220319
0.265625 0.000000 0.327407 100 100 100 1.220319
-0.225000 0.002778 0.254684 169 169 169 1.220319
-0.153125 0.002778 0.212673 215 215 215 1.220319
0.206250 0.002778 0.598337 127 127 127 1.220319
0.278125 0.002778 0.254787 94 94 94 1.220319
-0.284375 0.005556 0.182849 25 25 25 1.220319
-0.212500 0.005556 0.257861 188 188 188 1.220319
-0.140625 0.005556 0.202969 220 220 220 1.220319
0.218750 0.005556 0.541020 119 119 119 1.220319
0.290625 0.005556 0.181006 87 87 87 1.220319
-0.271875 0.008333 0.258162 107 107 107 1.220319
-0.200000 0.008333 0.255300 203 203 203 1.220319
-0.128125 0.008333 0.193114 220 220 220 1.220319
0.231250 0.008333 0.482463 121 121 121 1.220319
-0.259375 0.011111 0.276980 144 144 144 1.220319
-0.187500 0.011111 0.249592 211 211 211 1.220319
-0.115625 0.011111 0.181420 213 213 213 1.220319
0.171875 0.011111 0.570255 73 73 73 1.220319
0.243750 0.011111 0.418763 110 110 110 1.220319
-0.246875 0.013889 0.284614 170 170 170 1.220319
-0.175000 0.013889 0.241978 215 215 215 1.220319
-0.103125 0.013889 0.156358 188 188 188 1.220319
0.184375 0.013889 0.577785 101 101 101 1.220319
0.256250 0.013889 0.353168 96 96 96 1.220319
-0.234375 0.016667 0.287394 189 189 189 1.220319
-0.162500 0.016667 0.232151 221 221 221 1.220319
-0.090625 0.016667 0.096170 123 123 123 1.220319
0.196875 0.016667 0.553853 110 110 110 1.220319
0.268750 0.016667 0.283418 93 93 93 1.220319
-0.293750 0.019444 0.289084 110 110 110 1.220319
-0.221875 0.019444 0.284893 204 204 204 1.220319
-0.150000 0.019444 0.222295 221 221 221 1.220319
0.209375 0.019444 0.515049 105 105 105 1.220319
0.281250 0.019444 0.213188 93 93 93 1.220319
-0.281250 0.022222 0.307170 146 146 146 1.220319
-0.209375 0.022222 0.278854 211 211 211 1.220319
-0.137500 0.022222 0.212439 221 221 221 1.220319
0.221875 0.022222 0.467516 105 105 105 1.220319
0.293750 0.022222 0.099226 25 25 25 1.220319
-0.268750 0.025000 0.314590 171 171 171 1.220319
-0.196875 0.025000 0.271191 222 222 222 1.220319
-0.125000 0.025000 0.202584 221 221 221 1.220319
0.234375 0.025000 0.414510 102 102 102 1.220319
-0.256250 0.027778 0.316927 190 190 190 1.220319
-0.184375 0.027778 0.261335 222 222 222 1.220319
-0.112500 0.027778 0.190933 213 213 213 1.220319
0.246875 0.027778 0.357580 105 105 105 1.220319
-0.315625 0.030556 0.265548 63 63 63 1.220319
-0.243750 0.030556 0.314486 205 205 205 1.220319
-0.171875 0.030556 0.251478 221 221 221 1.220319
-0.100000 0.030556 0.166104 189 189 189 1.220319
0.259375 0.030556 0.297307 103 103 103 1.220319
-0.303125 0.033333 0.321258 131 131 131 1.220319
-0.231250 0.033333 0.308146 212 212 212 1.220319
-0.159375 0.033333 0.241621 221 221 221 1.220319
-0.087500 0.033333 0.106387 124 124 124 1.220319
0.200000 0.033333 0.404739 71 71 71 1.220319
0.271875 0.033333 0.233623 90 90 90 1.220319
-0.290625 0.036111 0.344566 173 173 173 1.220319
-0.218750 0.036111 0.300376 222 222 222 1.220319
-0.146875 0.036111 0.231765 221 221 221 1.220319
0.212500 0.036111 0.402478 88 88 88 1.220319
0.284375 0.036111 0.157341 63 63 63 1.220319
-0.278125 0.038889 0.346460 191 191 191 1.220319
-0.206250 0.038889 0.290520 222 222 222 1.220319
-0.134375 0.038889 0.221912 221 221 221 1.220319
0.225000 0.038889 0.372808 93 93 93 1.220319
-0.265625 0.041667 0.344079 206 206 206 1.220319
-0.193750 0.041667 0.280663 222 222 222 1.220319
-0.121875 0.041667 0.212056 221 221 221 1.220319
0.237500 0.041667 0.333547 81 81 81 1.220319
-0.325000 0.044444 0.243989 47 47 47 1.220319
-0.253125 0.044444 0.337451 212 212 212 1.220319
-0.181250 0.044444 0.270806 222 222 222 1.220319
-0.109375 0.044444 0.200446 214 214 214 1.220319
0.250000 0.044444 0.285015 82 82 82 1.220319
-0.312500 0.047222 0.332510 127 127 127 1.220319
-0.240625 0.047222 0.329560 222 222 222 1.220319
-0.168750 0.047222 0.260952 222 222 222 1.220319
-0.096875 0.047222 0.175850 190 190 190 1.220319
0.262500 0.047222 0.230888 83 83 83 1.220319
-0.300000 0.050000 0.367837 176 176 176 1.220319
-0.228125 0.050000 0.319705 222 222 222 1.220319
-0.156250 0.050000 0.219788 19 19 19 1.220319
-0.084375 0.050000 0.116605 125 125 125 1.220319
0.275000 0.050000 0.173142 83 83 83 1.220319
-0.287500 0.052778 0.373156 202 202 202 1.220319
-0.215625 0.052778 0.309849 222 222 222 1.220319
-0.143750 0.052778 0.209444 18 18 18 1.220319
-0.275000 0.055556 0.366756 213 213 213 1.220319
-0.203125 0.055556 0.299992 222 222 222 1.220319
-0.131250 0.055556 0.231380 222 222 222 1.220319
0.228125 0.055556 0.237387 61 61 61 1.220319
-0.262500 0.058333 0.358745 223 223 223 1.220319
-0.190625 0.058333 0.290135 222 222 222 1.220319
-0.118750 0.058333 0.221527 221 221 221 1.220319
0.240625 0.058333 0.226725 75 75 75 1.220319
-0.321875 0.061111 0.324949 114 114 114 1.220319
-0.250000 0.061111 0.348889 223 223 223 1.220319
-0.178125 0.061111 0.280278 222 222 222 1.220319
-0.106250 0.061111 0.209960 214 214 214 1.220319
0.253125 0.061111 0.193307 66 66 66 1.220319
-0.309375 0.063889 0.359871 149 149 149 1.220319
-0.237500 0.063889 0.339033 223 223 223 1.220319
-0.165625 0.063889 0.229451 18 18 18 1.220319
-0.093750 0.063889 0.185596 190 190 190 1.220319
0.265625 0.063889 0.108847 25 25 25 1.220319
-0.296875 0.066667 0.385718 196 196 196 1.220319
-0.225000 0.066667 0.329178 223 223 223 1.220319
-0.153125 0.066667 0.186586 25 25 25 1.220319
-0.081250 0.066667 0.126822 126 126 126 1.220319
-0.284375 0.069444 0.387425 222 222 222 1.220319
-0.212500 0.069444 0.319321 223 223 223 1.220319
-0.140625 0.069444 0.191664 20 20 20 1.220319
-0.271875 0.072222 0.378073 223 223 223 1.220319
-0.200000 0.072222 0.309464 223 223 223 1.220319
-0.128125 0.072222 0.239591 213 213 213 1.220319
-0.331250 0.075000 0.275703 62 62 62 1.220319
-0.259375 0.075000 0.368216 223 223 223 1.220319
-0.187500 0.075000 0.299607 223 223 223 1.220319
-0.115625 0.075000 0.230997 222 222 222 1.220319
-0.318750 0.077778 0.350755 133 133 133 1.220319
-0.246875 0.077778 0.358359 223 223 223 1.220319
-0.175000 0.077778 0.289754 223 223 223 1.220319
-0.103125 0.077778 0.219473 215 215 215 1.220319
-0.306250 0.080556 0.386358 171 171 171 1.220319
-0.234375 0.080556 0.342442 214 214 214 1.220319
-0.162500 0.080556 0.208592 22 22 22 1.220319
-0.090625 0.080556 0.195342 191 191 191 1.220319
-0.293750 0.083333 0.397715 215 215 215 1.220319
-0.221875 0.083333 0.335977 219 219 219 1.220319
-0.150000 0.083333 0.178237 25 25 25 1.220319
-0.078125 0.083333 0.137039 127 127 127 1.220319
-0.281250 0.086111 0.396841 223 223 223 1.220319
-0.209375 0.086111 0.328793 223 223 223 1.220319
-0.137500 0.086111 0.197235 19 19 19 1.220319
-0.340625 0.088889 0.104959 25 25 25 1.220319
-0.268750 0.088889 0.387545 223 223 223 1.220319
-0.196875 0.088889 0.318934 223 223 223 1.220319
-0.125000 0.088889 0.250322 222 222 222 1.220319
-0.328125 0.091667 0.308101 68 68 68 1.220319
-0.256250 0.091667 0.377687 223 223 223 1.220319
-0.184375 0.091667 0.309077 223 223 223 1.220319
-0.112500 0.091667 0.240468 222 222 222 1.220319
-0.315625 0.094444 0.367933 155 155 155 1.220319
-0.243750 0.094444 0.339535 19 19 19 1.220319
-0.171875 0.094444 0.298382 199 199 199 1.220319
-0.100000 0.094444 0.228986 215 215 215 1.220319
-0.303125 0.097222 0.395379 195 195 195 1.220319
-0.231250 0.097222 0.301760 23 23 23 1.220319
-0.159375 0.097222 0.206821 21 21 21 1.220319
-0.087500 0.097222 0.205088 191 191 191 1.220319
-0.290625 0.100000 0.407080 215 215 215 1.220319
-0.218750 0.100000 0.311201 16 16 16 1.220319
-0.146875 0.100000 0.196389 22 22 22 1.220319
-0.075000 0.100000 0.147257 128 128 128 1.220319
-0.350000 0.102778 -0.138699 25 25 25 1.220319
-0.278125 0.102778 0.406256 223 223 223 1.220319
-0.206250 0.102778 0.338260 224 224 224 1.220319
-0.134375 0.102778 0.248065 10 10 10 1.220319
-0.337500 0.105556 0.186482 25 25 25 1.220319
-0.265625 0.105556 0.397014 224 224 224 1.220319
-0.193750 0.105556 0.328406 224 224 224 1.220319
-0.121875 0.105556 0.259797 223 223 223 1.220319
-0.325000 0.108333 0.325546 93 93 93 1.220319
-0.253125 0.108333 0.385790 212 212 212 1.220319
-0.181250 0.108333 0.318548 224 224 224 1.220319
-0.109375 0.108333 0.249938 223 223 223 1.220319
-0.312500 0.111111 0.376911 155 155 155 1.220319
-0.240625 0.111111 0.307850 23 23 23 1.220319
-0.168750 0.111111 0.308690 224 224 224 1.220319
-0.096875 0.111111 0.238500 215 215 215 1.220319
-0.300000 0.113889 0.404637 195 195 195 1.220319
-0.228125 0.113889 0.283690 24 24 24 1.220319
-0.156250 0.113889 0.251292 13 13 13 1.220319
-0.084375 0.113889 0.214834 192 192 192 1.220319
-0.287500 0.116667 0.416445 216 216 216 1.220319
-0.215625 0.116667 0.306050 17 17 17 1.220319
-0.143750 0.116667 0.280368 122 122 122 1.220319
-0.071875 0.116667 0.157474 129 129 129 1.220319
-0.346875 0.119444 0.004611 25 25 25 1.220319
-0.275000 0.119444 0.415673 223 223 223 1.220319
-0.203125 0.119444 0.347730 224 224 224 1.220319
-0.131250 0.119444 0.279121 223 223 223 1.220319
-0.334375 0.122222 0.204058 25 25 25 1.220319
-0.262500 0.122222 0.406484 224 224 224 1.220319
-0.190625 0.122222 0.337876 224 224 224 1.220319
-0.118750 0.122222 0.269267 223 223 223 1.220319
-0.321875 0.125000 0.334280 92 92 92 1.220319
-0.250000 0.125000 0.352943 16 16 16 1.220319
-0.178125 0.125000 0.328016 224 224 224 1.220319
-0.106250 0.125000 0.259409 223 223 223 1.220319
-0.309375 0.127778 0.385888 154 154 154 1.220319
-0.237500 0.127778 0.297004 24 24 24 1.220319
-0.165625 0.127778 0.318160 224 224 224 1.220319
-0.093750 0.127778 0.248013 216 216 216 1.220319
-0.296875 0.130556 0.413894 195 195 195 1.220319
-0.225000 0.130556 0.291858 24 24 24 1.220319
-0.153125 0.130556 0.308306 224 224 224 1.220319
-0.081250 0.130556 0.224580 193 193 193 1.220319
-0.356250 0.133333 -0.184381 25 25 25 1.220319
-0.284375 0.133333 0.425811 216 216 216 1.220319
-0.212500 0.133333 0.338479 11 11 11 1.220319
-0.140625 0.133333 0.298447 224 224 224 1.220319
-0.068750 0.133333 0.167692 131 131 131 1.220319
-0.343750 0.136111 0.039589 25 25 25 1.220319
-0.271875 0.136111 0.425101 224 224 224 1.220319
-0.200000 0.136111 0.357201 224 224 224 1.220319
-0.128125 0.136111 0.288592 224 224 224 1.220319
-0.331250 0.138889 0.212043 25 25 25 1.220319
-0.259375 0.138889 0.415955 225 225 225 1.220319
-0.187500 0.138889 0.332253 16 16 16 1.220319
-0.115625 0.138889 0.278735 223 223 223 1.220319
-0.318750 0.141667 0.343013 91 91 91 1.220319
-0.246875 0.141667 0.395372 145 145 145 1.220319
-0.175000 0.141667 0.300555 17 17 17 1.220319
-0.103125 0.141667 0.268879 223 223 223 1.220319
-0.306250 0.144444 0.394866 154 154 154 1.220319
-0.234375 0.144444 0.311770 20 20 20 1.220319
-0.162500 0.144444 0.318832 168 168 168 1.220319
-0.090625 0.144444 0.257525 216 216 216 1.220319
-0.365625 0.147222 -0.399007 25 25 25 1.220319
-0.293750 0.147222 0.423152 195 195 195 1.220319
-0.221875 0.147222 0.327905 13 13 13 1.220319
-0.150000 0.147222 0.317775 224 224 224 1.220319
-0.078125 0.147222 0.234326 193 193 193 1.220319
-0.353125 0.150000 -0.130543 25 25 25 1.220319
-0.281250 0.150000 0.435176 216 216 216 1.220319
-0.209375 0.150000 0.376531 225 225 225 1.220319
-0.137500 0.150000 0.307919 224 224 224 1.220319
-0.065625 0.150000 0.177909 132 132 132 1.220319
-0.340625 0.152778 0.047701 25 25 25 1.220319
-0.268750 0.152778 0.434529 224 224 224 1.220319
-0.196875 0.152778 0.360573 168 168 168 1.220319
-0.125000 0.152778 0.298063 224 224 224 1.220319
-0.328125 0.155556 0.220008 25 25 25 1.220319
-0.256250 0.155556 0.425427 225 225 225 1.220319
-0.184375 0.155556 0.283782 23 23 23 1.220319
-0.112500 0.155556 0.288205 224 224 224 1.220319
-0.315625 0.158333 0.351723 91 91 91 1.220319
-0.243750 0.158333 0.415571 225 225 225 1.220319
-0.171875 0.158333 0.273978 22 22 22 1.220319
-0.100000 0.158333 0.278350 223 223 223 1.220319
-0.303125 0.161111 0.403843 154 154 154 1.220319
-0.231250 0.161111 0.405718 225 225 225 1.220319
-0.159375 0.161111 0.309938 15 15 15 1.220319
-0.087500 0.161111 0.267038 217 217 217 1.220319
-0.362500 0.163889 -0.302524 25 25 25 1.220319
-0.290625 0.163889 0.432409 195 195 195 1.220319
-0.218750 0.163889 0.395852 225 225 225 1.220319
-0.146875 0.163889 0.327244 225 225 225 1.220319
-0.075000 0.163889 0.244072 194 194 194 1.220319
-0.350000 0.166667 -0.116604 25 25 25 1.220319
-0.278125 0.166667 0.444542 216 216 216 1.220319
-0.206250 0.166667 0.386001 225 225 225 1.220319
-0.134375 0.166667 0.317388 224 224 224 1.220319
-0.062500 0.166667 0.188127 133 133 133 1.220319
-0.337500 0.169444 0.036653 134 134 134 1.220319
-0.265625 0.169444 0.443956 224 224 224 1.220319
-0.193750 0.169444 0.311426 18 18 18 1.220319
-0.121875 0.169444 0.307533 224 224 224 1.220319
-0.325000 0.172222 0.228009 25 25 25 1.220319
-0.253125 0.172222 0.434899 225 225 225 1.220319
-0.181250 0.172222 0.270286 25 25 25 1.220319
-0.109375 0.172222 0.297674 224 224 224 1.220319
-0.312500 0.175000 0.360424 90 90 90 1.220319
-0.240625 0.175000 0.425040 225 225 225 1.220319
-0.168750 0.175000 0.279084 22 22 22 1.220319
-0.096875 0.175000 0.287821 224 224 224 1.220319
-0.300000 0.177778 0.412821 154 154 154 1.220319
-0.228125 0.177778 0.415189 225 225 225 1.220319
-0.156250 0.177778 0.333632 25 25 25 1.220319
-0.084375 0.177778 0.276551 217 217 217 1.220319
-0.359375 0.180556 -0.280949 25 25 25 1.220319
-0.287500 0.180556 0.441666 195 195 195 1.220319
-0.215625 0.180556 0.405328 226 226 226 1.220319
-0.143750 0.180556 0.336716 225 225 225 1.220319
-0.071875 0.180556 0.253818 194 194 194 1.220319
-0.346875 0.183333 -0.108641 25 25 25 1.220319
-0.275000 0.183333 0.453903 217 217 217 1.220319
-0.203125 0.183333 0.395468 226 226 226 1.220319
-0.131250 0.183333 0.324414 207 207 207 1.220319
-0.059375 0.183333 0.198344 134 134 134 1.220319
-0.334375 0.186111 0.026548 172 172 172 1.220319
-0.262500 0.186111 0.453384 225 225 225 1.220319
-0.190625 0.186111 0.325048 17 17 17 1.220319
-0.118750 0.186111 0.306901 202 202 202 1.220319
-0.321875 0.188889 0.235989 25 25 25 1.220319
-0.250000 0.188889 0.444370 226 226 226 1.220319
-0.178125 0.188889 0.287022 22 22 22 1.220319
-0.106250 0.188889 0.307144 224 224 224 1.220319
-0.309375 0.191667 0.369126 89 89 89 1.220319
-0.237500 0.191667 0.434509 226 226 226 1.220319
-0.165625 0.191667 0.303146 17 17 17 1.220319
-0.093750 0.191667 0.297291 224 224 224 1.220319
-0.368750 0.194444 -0.469917 25 25 25 1.220319
-0.296875 0.194444 0.421798 154 154 154 1.220319
-0.225000 0.194444 0.424659 226 226 226 1.220319
-0.153125 0.194444 0.356045 225 225 225 1.220319
-0.081250 0.194444 0.286064 217 217 217 1.220319
-0.356250 0.197222 -0.276088 68 68 68 1.220319
-0.284375 0.197222 0.450924 195 195 195 1.220319
-0.212500 0.197222 0.414799 226 226 226 1.220319
-0.140625 0.197222 0.336270 167 167 167 1.220319
-0.068750 0.197222 0.263558 195 195 195 1.220319
-0.343750 0.200000 -0.100641 25 25 25 1.220319
-0.271875 0.200000 0.463233 217 217 217 1.220319
-0.200000 0.200000 0.404943 226 226 226 1.220319
-0.128125 0.200000 0.278808 23 23 23 1.220319
-0.056250 0.200000 0.208561 135 135 135 1.220319
-0.331250 0.202778 0.033570 165 165 165 1.220319
-0.259375 0.202778 0.462812 225 225 225 1.220319
-0.187500 0.202778 0.394414 199 199 199 1.220319
-0.115625 0.202778 0.274998 19 19 19 1.220319
-0.318750 0.205556 0.243984 25 25 25 1.220319
-0.246875 0.205556 0.453840 226 226 226 1.220319
-0.175000 0.205556 0.352273 12 12 12 1.220319
-0.103125 0.205556 0.311166 205 205 205 1.220319
-0.306250 0.208333 0.377827 89 89 89 1.220319
-0.234375 0.208333 0.443982 226 226 226 1.220319
-0.162500 0.208333 0.375372 226 226 226 1.220319
-0.090625 0.208333 0.306762 224 224 224 1.220319
-0.365625 0.211111 -0.441587 25 25 25 1.220319
-0.293750 0.211111 0.430776 153 153 153 1.220319
-0.221875 0.211111 0.434128 226 226 226 1.220319
-0.150000 0.211111 0.365511 226 226 226 1.220319
-0.078125 0.211111 0.295576 218 218 218 1.220319
-0.353125 0.213889 -0.310785 162 162 162 1.220319
-0.281250 0.213889 0.460181 195 195 195 1.220319
-0.209375 0.213889 0.424268 226 226 226 1.220319
-0.137500 0.213889 0.304490 18 18 18 1.220319
-0.065625 0.213889 0.273170 195 195 195 1.220319
-0.340625 0.216667 -0.092662 25 25 25 1.220319
-0.268750 0.216667 0.472563 217 217 217 1.220319
-0.196875 0.216667 0.414414 226 226 226 1.220319
-0.125000 0.216667 0.258908 25 25 25 1.220319
-0.053125 0.216667 0.218754 136 136 136 1.220319
-0.328125 0.219444 0.062896 110 110 110 1.220319
-0.256250 0.219444 0.472239 225 225 225 1.220319
-0.184375 0.219444 0.404555 226 226 226 1.220319
-0.112500 0.219444 0.269522 21 21 21 1.220319
-0.315625 0.222222 0.251970 25 25 25 1.220319
-0.243750 0.222222 0.463311 226 226 226 1.220319
-0.171875 0.222222 0.394702 226 226 226 1.220319
-0.100000 0.222222 0.322645 200 200 200 1.220319
-0.303125 0.225000 0.386529 88 88 88 1.220319
-0.231250 0.225000 0.453452 226 226 226 1.220319
-0.159375 0.225000 0.384842 226 226 226 1.220319
-0.087500 0.225000 0.316232 225 225 225 1.220319
-0.362500 0.227778 -0.434265 25 25 25 1.220319
-0.290625 0.227778 0.439813 153 153 153 1.220319
-0.218750 0.227778 0.441741 194 194 194 1.220319
-0.146875 0.227778 0.374981 226 226 226 1.220319
-0.075000 0.227778 0.305089 218 218 218 1.220319
-0.350000 0.230556 -0.321536 23 23 23 1.220319
-0.278125 0.230556 0.469439 195 195 195 1.220319
-0.206250 0.230556 0.397255 17 17 17 1.220319
-0.134375 0.230556 0.284764 22 22 22 1.220319
-0.062500 0.230556 0.282782 196 196 196 1.220319
-0.337500 0.233333 -0.084667 25 25 25 1.220319
-0.265625 0.233333 0.481893 217 217 217 1.220319
-0.193750 0.233333 0.399687 15 15 15 1.220319
-0.121875 0.233333 0.259654 25 25 25 1.220319
-0.050000 0.233333 0.228777 136 136 136 1.220319
-0.325000 0.236111 0.087584 25 25 25 1.220319
-0.253125 0.236111 0.481667 226 226 226 1.220319
-0.181250 0.236111 0.414028 226 226 226 1.220319
-0.109375 0.236111 0.292794 17 17 17 1.220319
-0.312500 0.238889 0.259897 25 25 25 1.220319
-0.240625 0.238889 0.472781 227 227 227 1.220319
-0.168750 0.238889 0.404170 226 226 226 1.220319
-0.096875 0.238889 0.335560 225 225 225 1.220319
-0.300000 0.241667 0.395230 87 87 87 1.220319
-0.228125 0.241667 0.462921 227 227 227 1.220319
-0.156250 0.241667 0.394311 226 226 226 1.220319
-0.084375 0.241667 0.325703 225 225 225 1.220319
-0.359375 0.244444 -0.426943 25 25 25 1.220319
-0.287500 0.244444 0.448884 153 153 153 1.220319
-0.215625 0.244444 0.398748 20 20 20 1.220319
-0.143750 0.244444 0.384454 226 226 226 1.220319
-0.071875 0.244444 0.314602 218 218 218 1.220319
-0.346875 0.247222 -0.312584 21 21 21 1.220319
-0.275000 0.247222 0.478696 195 195 195 1.220319
-0.203125 0.247222 0.369715 23 23 23 1.220319
-0.131250 0.247222 0.313216 17 17 17 1.220319
-0.059375 0.247222 0.292394 196 196 196 1.220319
-0.334375 0.250000 -0.076753 25 25 25 1.220319
-0.262500 0.250000 0.491223 218 218 218 1.220319
-0.190625 0.250000 0.381716 18 18 18 1.220319
-0.118750 0.250000 0.292837 18 18 18 1.220319
-0.046875 0.250000 0.238800 137 137 137 1.220319
-0.321875 0.252778 0.086489 113 113 113 1.220319
-0.250000 0.252778 0.491095 226 226 226 1.220319
-0.178125 0.252778 0.423501 227 227 227 1.220319
